ply
format ascii 1.0
element vertex 1477
property float x
property float y
property float z
property uchar red
property uchar green
property uchar blue
end_header
-4.722 -24.870 0.992 39 41 54
-4.832 -24.791 1.040 87 92 86
-4.916 -24.753 1.068 66 68 67
-4.970 -24.773 1.070 111 104 94
-5.033 -24.773 1.079 235 229 205
-5.089 -24.787 1.082 202 196 172
-5.143 -24.806 1.083 201 199 174
-5.197 -24.823 1.083 175 173 158
-5.251 -24.842 1.083 145 147 133
-5.303 -24.865 1.080 152 153 145
-5.360 -24.876 1.082 57 57 57
-5.421 -24.865 1.091 59 57 60
-5.477 -24.873 1.093 77 72 69
-5.508 -25.022 1.037 94 89 85
-5.511 -25.408 0.886 250 247 238
-5.567 -25.522 0.845 236 236 224
-5.632 -25.587 0.822 244 248 233
-5.702 -25.635 0.805 255 255 243
-5.774 -25.677 0.791 255 255 244
-5.849 -25.705 0.781 249 238 232
-5.925 -25.709 0.780 249 242 232
-6.000 -25.693 0.786 255 255 243
-6.074 -25.671 0.793 242 244 231
-6.150 -25.680 0.788 250 237 229
-6.226 -25.685 0.783 235 221 212
-6.456 -26.933 0.283 219 204 201
-7.312 -31.973 -1.736 79 58 63
-7.547 -31.969 -1.749 101 79 82
-6.871 -27.379 0.083 166 130 134
-8.048 -32.077 -1.830 87 44 51
-8.293 -32.075 -1.851 78 31 39
-8.533 -32.047 -1.865 79 28 37
-8.771 -32.004 -1.875 85 31 44
-9.004 -31.942 -1.879 88 45 52
-9.232 -31.864 -1.879 78 30 42
-9.454 -31.770 -1.875 39 19 31
-9.664 -31.648 -1.861 20 24 33
-9.865 -31.511 -1.843 36 38 51
-10.078 -31.402 -1.838 52 55 62
-7.226 -25.207 0.856 244 244 236
-8.669 -27.755 -0.301 204 200 188
-10.727 -31.098 -1.850 30 27 34
-10.969 -31.036 -1.877 19 22 29
-11.203 -30.957 -1.899 16 19 28
-11.419 -30.843 -1.908 23 27 39
-11.629 -30.721 -1.915 22 28 40
-11.828 -30.581 -1.917 28 34 48
-12.021 -30.433 -1.916 28 34 50
-12.207 -30.276 -1.914 28 34 48
-12.383 -30.109 -1.908 26 32 46
-12.550 -29.931 -1.899 25 31 45
-12.711 -29.749 -1.889 22 28 42
-12.862 -29.559 -1.877 22 28 40
-13.003 -29.360 -1.862 23 29 43
-13.146 -29.166 -1.852 38 44 58
-8.877 -25.168 0.459 35 42 52
-8.938 -25.094 0.459 91 96 100
-8.978 -25.004 0.470 76 79 84
-9.043 -24.934 0.466 73 76 81
-9.100 -24.857 0.465 79 82 87
-9.151 -24.777 0.467 69 76 84
-9.219 -24.707 0.459 79 86 94
-9.274 -24.628 0.457 71 80 87
-9.330 -24.550 0.453 63 74 80
-9.386 -24.471 0.449 67 77 86
-9.439 -24.390 0.445 30 37 43
-9.488 -24.306 0.442 75 76 80
-9.518 -24.214 0.447 159 163 166
-9.541 -24.119 0.453 72 83 89
-9.569 -24.027 0.457 65 78 87
-9.593 -23.933 0.461 73 87 96
-9.604 -23.836 0.469 86 103 113
-9.612 -23.739 0.477 88 103 110
-9.581 -23.633 0.501 150 162 150
-9.451 -23.504 0.564 193 194 186
-9.157 -23.347 0.691 135 133 134
-8.993 -23.231 0.764 138 139 133
-8.995 -23.154 0.769 179 176 171
-9.004 -23.078 0.770 138 134 131
-9.019 -23.003 0.768 112 114 111
-9.093 -22.933 0.742 102 104 99
-9.121 -22.857 0.733 125 125 125
-9.169 -22.780 0.716 246 244 245
-9.173 -22.701 0.716 254 251 246
-9.154 -22.621 0.724 249 248 244
-9.128 -22.542 0.734 216 215 213
-9.093 -22.465 0.746 207 206 204
-9.071 -22.389 0.753 236 235 233
-9.043 -22.314 0.762 255 255 251
-9.008 -22.241 0.772 253 252 247
-8.891 -22.181 0.815 239 239 231
-8.657 -22.147 0.904 210 207 198
-8.163 -22.176 1.098 215 212 203
-7.876 -22.183 1.209 208 205 198
-7.857 -22.137 1.213 129 126 119
-7.803 -22.101 1.230 89 86 79
-13.098 -20.445 -0.962 224 220 209
-13.207 -20.215 -1.031 234 228 212
-13.194 -20.020 -1.051 209 202 183
-13.161 -19.829 -1.065 234 227 209
-13.117 -19.642 -1.077 235 228 210
-13.063 -19.457 -1.086 235 228 210
-13.004 -19.273 -1.095 235 228 210
-12.944 -19.087 -1.106 234 227 209
-12.880 -18.903 -1.116 234 227 209
-12.807 -18.722 -1.126 234 227 209
-12.734 -18.539 -1.137 234 227 209
-12.660 -18.355 -1.151 234 227 209
-12.580 -18.174 -1.163 234 227 209
-12.493 -17.995 -1.175 234 227 209
-12.403 -17.816 -1.187 233 226 208
-12.311 -17.637 -1.201 233 226 208
-12.215 -17.459 -1.216 233 226 208
-12.114 -17.282 -1.230 233 226 208
-12.007 -17.108 -1.244 232 225 207
-11.894 -16.937 -1.257 232 225 207
-11.777 -16.768 -1.271 232 225 207
-11.656 -16.601 -1.285 232 225 207
-11.529 -16.438 -1.298 233 226 208
-11.396 -16.278 -1.310 224 217 199
-11.259 -16.121 -1.323 231 224 208
-11.119 -15.964 -1.337 231 224 208
-10.977 -15.808 -1.352 231 224 208
-10.828 -15.658 -1.365 231 224 208
-10.674 -15.513 -1.378 231 224 206
-10.513 -15.374 -1.390 231 224 206
-10.349 -15.239 -1.401 231 224 206
-10.179 -15.111 -1.411 228 221 203
-10.007 -14.983 -1.423 223 216 197
-9.831 -14.860 -1.433 230 223 205
-9.652 -14.740 -1.445 229 222 206
-9.471 -14.619 -1.459 229 222 206
-9.287 -14.504 -1.472 229 222 206
-9.099 -14.390 -1.486 229 222 204
-8.909 -14.279 -1.501 229 222 204
-8.714 -14.176 -1.515 228 221 203
-8.517 -14.076 -1.529 228 221 203
-8.315 -13.983 -1.542 229 222 204
-8.111 -13.894 -1.555 229 222 204
-7.903 -13.811 -1.568 229 222 204
-7.692 -13.734 -1.581 229 222 204
-7.479 -13.660 -1.594 228 221 203
-7.264 -13.591 -1.607 227 220 202
-7.046 -13.529 -1.620 226 219 201
-6.825 -13.478 -1.631 225 218 200
-6.602 -13.439 -1.638 225 218 200
-6.378 -13.385 -1.654 225 218 200
-6.153 -13.330 -1.672 225 218 200
-5.925 -19.190 0.579 125 126 130
-5.841 -19.215 0.589 89 90 95
-5.758 -19.234 0.595 80 81 86
-5.676 -19.258 0.603 82 82 90
-5.596 -19.283 0.611 73 77 80
-5.516 -19.312 0.619 143 147 150
-5.438 -19.343 0.628 138 139 143
-5.362 -19.380 0.637 136 137 141
-5.286 -19.411 0.645 117 118 122
-5.211 -19.444 0.651 84 85 89
-5.137 -19.475 0.657 81 82 86
-5.064 -19.511 0.663 79 78 83
-4.992 -19.548 0.670 127 128 130
-4.924 -19.594 0.679 129 130 132
-4.856 -19.634 0.686 122 123 127
-4.790 -19.680 0.694 88 89 93
-4.725 -19.726 0.702 84 85 89
-4.662 -19.772 0.709 83 84 88
-4.599 -19.818 0.716 87 88 92
-4.538 -19.866 0.722 87 88 92
-4.480 -19.918 0.731 91 93 92
-4.424 -19.973 0.739 80 82 81
-4.367 -20.022 0.745 81 82 84
-4.312 -20.074 0.751 83 84 88
-4.253 -20.120 0.754 86 86 88
-4.199 -20.171 0.759 75 75 77
-4.140 -20.215 0.759 85 85 85
-4.076 -20.253 0.756 89 89 89
-4.006 -20.283 0.747 87 89 88
-3.934 -20.313 0.738 86 86 86
-3.869 -20.352 0.732 77 75 76
-3.445 -20.017 0.511 82 82 84
-3.624 -20.321 0.653 92 88 89
-3.624 -20.431 0.684 90 86 85
-3.584 -20.500 0.692 83 82 78
-3.341 -20.392 0.587 65 65 65
-3.166 -20.357 0.522 60 60 62
-3.481 -20.714 0.716 68 66 69
-3.485 -20.812 0.742 89 84 81
-3.463 -20.887 0.753 113 105 102
-3.420 -20.947 0.752 117 107 105
-3.382 -21.011 0.754 118 108 106
-3.344 -21.074 0.754 120 110 108
-3.313 -21.141 0.757 120 110 108
-3.286 -21.210 0.761 116 107 108
-3.256 -21.278 0.763 123 117 117
-3.237 -21.350 0.769 120 119 117
-3.099 -21.369 0.720 98 100 99
-2.669 -21.273 0.541 103 104 106
-2.530 -21.311 0.493 43 44 46
-2.404 -21.361 0.451 22 23 25
-2.308 -21.426 0.422 16 20 23
-2.242 -21.504 0.406 123 125 122
-2.197 -21.589 0.398 128 130 125
-2.165 -21.679 0.395 144 146 141
-2.133 -21.769 0.390 149 151 146
-2.111 -21.862 0.389 23 24 29
-2.100 -21.957 0.392 35 35 43
-2.099 -22.053 0.398 80 81 86
-2.102 -22.149 0.404 157 157 165
-2.104 -22.245 0.410 18 18 20
-2.107 -22.339 0.414 135 135 135
-2.113 -22.434 0.419 143 143 143
-2.127 -22.528 0.427 138 138 138
-2.144 -22.621 0.434 134 134 132
-2.159 -22.713 0.440 140 140 138
-2.174 -22.805 0.445 143 143 141
-2.191 -22.896 0.449 142 142 140
-2.202 -22.988 0.451 143 142 140
-2.216 -23.078 0.452 144 143 141
-2.228 -23.169 0.452 146 145 143
-2.257 -23.257 0.458 147 146 144
-2.288 -23.344 0.464 151 150 146
-2.278 -23.440 0.452 155 156 158
-1.569 -23.712 0.140 56 59 66
-2.541 -23.557 0.546 22 23 28
-2.575 -23.637 0.550 101 103 102
-2.596 -23.721 0.548 29 30 34
-2.630 -23.800 0.550 1 2 7
-2.704 -23.863 0.570 186 189 182
-3.247 -23.730 0.800 171 169 157
-3.789 -23.567 1.032 149 142 134
-3.851 -23.602 1.050 138 128 119
-3.887 -23.646 1.055 141 131 121
-3.933 -23.685 1.065 161 149 135
-3.971 -23.728 1.070 173 161 147
-3.816 -23.885 0.982 172 163 154
-2.957 -24.500 0.545 150 143 137
-2.944 -24.613 0.515 126 121 117
-2.930 -24.730 0.483 188 187 183
-2.944 -24.832 0.463 213 214 209
-2.989 -24.912 0.458 144 143 139
-3.048 -24.982 0.459 150 141 136
-3.116 -25.044 0.463 125 120 116
-3.189 -25.100 0.471 172 172 170
-3.263 -25.155 0.478 209 211 206
-3.337 -25.208 0.485 210 214 215
-3.414 -25.258 0.492 209 214 218
-3.490 -25.307 0.498 194 198 201
-3.565 -25.356 0.504 199 199 201
-3.641 -25.404 0.509 200 199 204
-3.713 -25.455 0.511 163 166 171
-4.296 -24.816 0.868 106 106 108
-4.417 -24.762 0.915 94 90 89
-4.478 -24.785 0.922 74 73 78
-4.546 -24.798 0.932 75 74 79
-4.610 -24.813 0.941 62 65 70
-4.670 -24.835 0.946 50 55 61
-4.729 -24.857 0.950 56 53 62
-4.829 -24.798 0.991 66 68 67
-4.916 -24.754 1.023 57 62 68
-4.969 -24.776 1.024 16 18 15
-5.030 -24.780 1.032 202 195 167
-5.087 -24.793 1.036 208 202 166
-5.140 -24.813 1.036 193 190 157
-5.195 -24.830 1.036 140 139 121
-5.248 -24.849 1.035 113 110 93
-5.301 -24.874 1.032 141 137 125
-5.354 -24.897 1.028 166 163 158
-5.415 -24.892 1.036 40 38 41
-5.462 -24.945 1.019 63 58 55
-5.427 -25.488 0.794 229 225 214
-5.491 -25.545 0.775 235 229 213
-5.558 -25.596 0.758 242 236 220
-5.627 -25.640 0.743 247 244 227
-5.699 -25.673 0.732 255 255 237
-5.773 -25.708 0.720 255 244 228
-5.848 -25.729 0.712 176 133 126
-5.925 -25.734 0.711 172 116 117
-6.001 -25.736 0.709 164 129 127
-6.077 -25.727 0.712 166 157 150
-6.153 -25.712 0.716 169 172 155
-6.225 -25.675 0.729 159 163 146
-6.710 -28.987 -0.657 127 112 109
-7.303 -31.916 -1.892 68 45 51
-7.476 -31.561 -1.759 71 51 53
-6.812 -27.085 0.115 133 104 108
-8.044 -32.059 -2.007 82 43 48
-8.286 -32.046 -2.025 84 33 42
-8.525 -32.018 -2.039 81 23 35
-8.761 -31.972 -2.048 85 27 39
-8.992 -31.906 -2.050 91 38 48
-9.218 -31.825 -2.049 72 26 37
-9.437 -31.726 -2.042 48 27 36
-9.642 -31.595 -2.023 23 24 29
-9.840 -31.455 -2.003 26 33 43
-10.062 -31.369 -2.009 52 56 65
-7.235 -25.225 0.793 253 249 237
-9.831 -29.930 -1.433 104 91 83
-10.697 -31.046 -2.011 44 32 34
-10.940 -30.988 -2.041 31 27 28
-11.182 -30.924 -2.071 34 33 41
-11.401 -30.817 -2.083 25 29 40
-11.608 -30.691 -2.089 21 28 38
-11.808 -30.553 -2.091 27 33 45
-11.999 -30.405 -2.090 27 33 47
-12.184 -30.248 -2.087 27 33 49
-12.360 -30.081 -2.081 27 33 49
-12.525 -29.904 -2.071 26 32 48
-12.685 -29.722 -2.061 24 30 46
-12.834 -29.530 -2.047 21 27 41
-12.960 -29.319 -2.024 21 21 31
-13.080 -29.106 -2.000 31 31 33
-8.875 -25.166 0.386 215 215 215
-8.934 -25.091 0.387 159 159 159
-8.994 -25.016 0.387 206 206 206
-9.050 -24.939 0.388 207 207 207
-9.098 -24.856 0.392 207 207 207
-9.160 -24.783 0.388 206 207 209
-9.227 -24.712 0.381 228 229 231
-9.278 -24.631 0.380 217 221 222
-9.333 -24.552 0.377 178 182 183
-9.387 -24.471 0.374 107 110 115
-9.437 -24.389 0.371 42 43 47
-9.488 -24.306 0.367 36 38 37
-9.534 -24.221 0.365 231 233 232
-9.564 -24.128 0.368 209 211 210
-9.588 -24.034 0.374 131 135 136
-9.613 -23.941 0.377 72 77 80
-9.634 -23.846 0.382 71 78 84
-9.651 -23.751 0.387 61 69 72
-9.665 -23.656 0.392 58 64 60
-9.673 -23.560 0.400 131 133 130
-9.641 -23.456 0.422 154 156 153
-9.595 -23.351 0.450 88 89 83
-9.567 -23.253 0.469 247 248 243
-9.557 -23.160 0.479 80 81 76
-9.548 -23.068 0.488 85 91 81
-9.534 -22.976 0.498 211 215 201
-9.507 -22.885 0.512 241 241 229
-9.475 -22.795 0.527 158 158 150
-9.470 -22.708 0.531 150 152 149
-9.477 -22.621 0.529 150 151 153
-9.465 -22.534 0.533 201 201 203
-9.418 -22.449 0.551 112 116 119
-9.327 -22.370 0.587 69 74 78
-9.240 -22.294 0.620 65 72 78
-9.179 -22.219 0.642 56 61 64
-9.136 -22.145 0.655 127 132 126
-9.047 -22.079 0.687 170 174 159
-8.959 -22.017 0.718 151 159 144
-8.774 -21.981 0.790 163 158 154
-8.365 -22.010 0.958 109 108 104
-8.107 -22.017 1.062 142 148 138
-13.153 -20.428 -1.129 231 229 214
-13.154 -20.232 -1.154 233 228 209
-13.145 -20.037 -1.176 212 205 187
-13.117 -19.846 -1.193 232 227 208
-13.073 -19.660 -1.205 235 228 210
-13.021 -19.475 -1.215 235 228 210
-12.965 -19.291 -1.226 233 226 208
-12.906 -19.107 -1.237 233 226 208
-12.840 -18.924 -1.248 232 225 207
-12.767 -18.744 -1.258 233 226 208
-12.694 -18.563 -1.269 233 226 208
-12.620 -18.381 -1.283 233 226 208
-12.540 -18.201 -1.296 233 226 208
-12.454 -18.022 -1.308 233 226 208
-12.365 -17.844 -1.321 232 225 207
-12.274 -17.666 -1.336 232 225 207
-12.178 -17.489 -1.351 230 223 205
-12.077 -17.314 -1.366 230 223 205
-11.970 -17.142 -1.379 230 223 205
-11.857 -16.973 -1.393 230 223 205
-11.740 -16.805 -1.407 227 220 202
-11.619 -16.640 -1.421 232 225 207
-11.493 -16.477 -1.434 227 220 202
-11.360 -16.319 -1.447 222 215 197
-11.224 -16.164 -1.460 231 224 206
-11.085 -16.008 -1.475 227 220 202
-10.943 -15.854 -1.490 229 222 204
-10.796 -15.704 -1.504 229 222 204
-10.642 -15.560 -1.517 232 225 207
-10.483 -15.422 -1.530 231 224 206
-10.320 -15.287 -1.541 229 222 204
-10.151 -15.160 -1.552 227 220 202
-9.981 -15.032 -1.564 223 216 198
-9.806 -14.910 -1.576 227 220 202
-9.628 -14.791 -1.588 227 220 202
-9.448 -14.672 -1.602 226 219 201
-9.264 -14.558 -1.615 228 221 203
-9.079 -14.444 -1.630 228 221 203
-8.889 -14.334 -1.645 229 222 204
-8.696 -14.232 -1.660 227 220 202
-8.499 -14.133 -1.674 228 221 203
-8.299 -14.042 -1.687 228 221 203
-8.096 -13.953 -1.701 227 220 202
-7.890 -13.870 -1.715 226 219 201
-7.680 -13.793 -1.728 226 218 205
-7.469 -13.721 -1.742 227 219 200
-7.255 -13.652 -1.756 229 216 208
-7.038 -13.592 -1.768 229 215 212
-6.819 -13.541 -1.779 220 218 203
-6.597 -13.505 -1.786 224 216 203
-6.375 -13.453 -1.802 225 212 203
-6.151 -13.411 -1.816 223 222 202
-5.925 -18.865 0.372 73 77 78
-5.833 -18.889 0.382 84 88 89
-5.742 -18.911 0.390 95 99 102
-5.653 -18.938 0.399 96 99 104
-5.564 -18.964 0.407 87 91 94
-5.477 -18.993 0.416 93 97 100
-5.391 -19.026 0.425 78 82 85
-5.307 -19.061 0.434 74 78 81
-5.223 -19.093 0.441 76 77 82
-5.140 -19.128 0.448 80 81 86
-5.058 -19.162 0.454 75 76 81
-4.978 -19.199 0.461 73 74 79
-4.898 -19.238 0.468 76 77 79
-4.822 -19.284 0.476 75 77 76
-4.746 -19.327 0.484 74 75 77
-4.672 -19.375 0.492 75 76 80
-4.600 -19.422 0.499 80 81 86
-4.527 -19.469 0.505 80 81 86
-4.456 -19.516 0.511 81 82 87
-4.388 -19.568 0.518 82 83 88
-4.323 -19.624 0.527 79 83 84
-4.257 -19.678 0.534 79 83 84
-4.193 -19.732 0.540 73 77 80
-4.129 -19.786 0.545 85 88 93
-4.064 -19.836 0.548 82 81 86
-3.999 -19.887 0.550 83 83 85
-3.739 -19.674 0.409 118 118 118
-3.650 -19.706 0.397 103 103 101
-3.614 -19.806 0.421 109 108 104
-3.566 -19.887 0.435 106 102 101
-3.540 -19.990 0.461 109 105 104
-3.266 -19.829 0.329 105 99 99
-3.374 -20.071 0.436 111 102 103
-3.303 -20.125 0.431 111 102 103
-3.258 -20.204 0.440 105 99 99
-3.172 -20.247 0.424 107 103 102
-3.092 -20.296 0.411 102 98 99
-3.101 -20.417 0.447 111 105 107
-3.096 -20.523 0.473 120 111 112
-3.056 -20.601 0.479 120 110 109
-3.022 -20.682 0.487 121 111 110
-2.991 -20.763 0.495 120 110 109
-2.961 -20.845 0.502 120 110 109
-2.929 -20.924 0.508 119 109 108
-2.900 -21.004 0.513 124 115 118
-2.873 -21.085 0.519 116 110 112
-2.853 -21.168 0.527 107 103 104
-2.790 -21.231 0.514 40 40 40
-2.693 -21.282 0.484 48 47 45
-2.620 -21.346 0.465 52 52 52
-2.528 -21.406 0.436 35 36 38
-2.404 -21.458 0.393 3 4 8
-2.314 -21.526 0.364 13 16 23
-2.252 -21.605 0.348 7 10 19
-2.209 -21.690 0.339 37 40 49
-2.171 -21.778 0.332 0 1 10
-2.145 -21.869 0.330 8 11 18
-2.128 -21.962 0.330 27 31 34
-2.125 -22.057 0.335 102 106 107
-2.129 -22.153 0.342 132 135 140
-2.134 -22.248 0.349 10 11 13
-2.137 -22.342 0.354 145 147 146
-2.148 -22.435 0.361 144 146 145
-2.158 -22.528 0.367 144 146 145
-2.173 -22.621 0.374 139 139 137
-2.185 -22.713 0.378 137 137 135
-2.197 -22.804 0.382 131 131 129
-2.212 -22.895 0.386 129 129 127
-2.218 -22.986 0.385 138 138 138
-2.231 -23.076 0.386 144 144 146
-2.247 -23.166 0.388 157 157 159
-2.290 -23.252 0.401 159 159 161
-2.265 -23.349 0.383 153 152 150
-2.295 -23.436 0.388 142 143 145
-1.561 -23.714 0.050 75 80 86
-2.564 -23.551 0.489 137 136 141
-2.614 -23.625 0.500 77 77 75
-2.628 -23.710 0.495 0 0 4
-2.652 -23.792 0.493 14 15 19
-2.722 -23.856 0.512 165 168 161
-3.073 -23.802 0.662 110 108 96
-3.591 -23.655 0.893 189 185 173
-3.649 -23.697 0.909 145 139 127
-3.686 -23.747 0.914 141 133 120
-3.730 -23.794 0.921 137 129 116
-3.753 -23.851 0.918 125 117 106
-3.556 -24.041 0.803 103 96 88
-2.970 -24.492 0.484 152 147 141
-2.964 -24.599 0.456 110 105 99
-2.946 -24.719 0.421 67 67 59
-2.953 -24.824 0.396 187 188 180
-2.999 -24.904 0.391 204 201 194
-3.056 -24.975 0.391 236 227 222
-3.122 -25.039 0.395 209 204 201
-3.195 -25.095 0.403 255 255 255
-3.269 -25.149 0.410 216 216 214
-3.342 -25.204 0.416 243 234 235
-3.416 -25.256 0.423 93 84 87
-3.490 -25.307 0.428 193 191 194
-3.564 -25.357 0.433 183 184 188
-3.641 -25.403 0.440 90 93 98
-3.718 -25.448 0.445 128 132 135
-3.964 -25.264 0.573 190 191 193
-4.440 -24.728 0.883 35 35 35
-4.501 -24.752 0.889 6 7 9
-4.564 -24.769 0.898 13 14 18
-4.625 -24.788 0.905 17 18 23
-4.684 -24.810 0.909 6 6 14
-4.749 -24.819 0.919 16 16 24
-4.846 -24.763 0.960 27 31 30
-4.923 -24.738 0.985 20 24 33
-4.979 -24.754 0.988 26 26 34
-5.031 -24.778 0.988 198 192 180
-5.090 -24.785 0.994 139 132 113
-5.146 -24.798 0.998 135 133 112
-5.200 -24.814 0.999 79 79 69
-5.254 -24.832 0.998 100 100 92
-5.306 -24.855 0.995 86 85 80
-5.360 -24.873 0.993 62 62 62
-5.419 -24.870 1.001 24 23 29
-5.441 -25.053 0.925 37 35 36
-5.428 -25.482 0.741 162 158 149
-5.491 -25.541 0.720 227 221 207
-5.558 -25.592 0.702 229 221 210
-5.628 -25.636 0.687 236 219 211
-5.700 -25.671 0.674 252 246 232
-5.773 -25.702 0.663 239 242 221
-5.849 -25.716 0.658 255 255 236
-5.925 -25.727 0.653 255 249 233
-6.001 -25.725 0.654 218 215 200
-6.076 -25.712 0.658 222 224 213
-6.152 -25.703 0.660 221 217 206
-6.223 -25.647 0.682 204 206 193
-7.054 -31.775 -1.998 126 108 106
-7.291 -31.835 -2.038 66 48 48
-6.575 -26.368 0.351 201 188 180
-6.823 -27.138 0.003 198 169 171
-8.036 -32.024 -2.178 78 38 46
-8.277 -32.012 -2.197 77 27 38
-8.514 -31.979 -2.209 75 23 35
-8.748 -31.930 -2.217 82 31 40
-8.975 -31.856 -2.216 81 27 40
-9.199 -31.773 -2.214 79 28 43
-9.417 -31.675 -2.207 64 32 43
-9.618 -31.537 -2.184 27 20 27
-9.813 -31.393 -2.160 20 24 35
-10.032 -31.305 -2.165 38 43 49
-7.302 -25.357 0.672 227 221 209
-10.325 -30.853 -2.046 35 24 20
-10.649 -30.961 -2.155 41 31 30
-10.899 -30.921 -2.195 228 226 227
-11.164 -30.895 -2.246 28 31 38
-11.381 -30.787 -2.258 25 32 42
-11.586 -30.660 -2.262 23 30 40
-11.784 -30.521 -2.264 25 31 43
-11.974 -30.373 -2.263 28 34 48
-12.158 -30.216 -2.259 33 39 55
-12.333 -30.050 -2.253 29 35 51
-12.498 -29.873 -2.243 28 34 50
-12.657 -29.693 -2.233 26 32 48
-12.799 -29.495 -2.215 29 32 47
-12.913 -29.274 -2.183 35 34 42
-12.356 -28.450 -1.763 50 46 47
-8.869 -25.161 0.314 191 190 188
-8.930 -25.088 0.314 193 194 189
-8.994 -25.016 0.312 202 203 198
-9.052 -24.941 0.312 226 227 222
-9.102 -24.859 0.315 200 201 196
-9.154 -24.779 0.316 211 213 210
-9.224 -24.710 0.307 172 174 171
-9.280 -24.632 0.304 198 200 197
-9.337 -24.554 0.300 214 216 213
-9.395 -24.476 0.294 205 206 208
-9.450 -24.395 0.289 210 211 213
-9.499 -24.312 0.286 195 197 196
-9.550 -24.228 0.281 198 200 197
-9.592 -24.140 0.279 183 182 178
-9.631 -24.050 0.278 188 187 183
-9.669 -23.961 0.276 205 205 203
-9.695 -23.867 0.278 237 237 237
-9.722 -23.773 0.280 233 235 232
-9.739 -23.676 0.284 194 196 193
-9.752 -23.580 0.290 181 183 180
-9.749 -23.480 0.301 186 188 185
-9.723 -23.376 0.321 195 195 193
-9.707 -23.277 0.336 151 151 153
-9.681 -23.178 0.354 173 174 179
-9.658 -23.081 0.369 169 173 172
-9.633 -22.986 0.385 168 171 164
-9.602 -22.892 0.401 142 142 134
-9.576 -22.800 0.415 255 255 248
-9.559 -22.710 0.424 130 132 131
-9.551 -22.621 0.428 134 140 140
-9.539 -22.532 0.432 125 134 131
-9.514 -22.445 0.442 140 150 149
-9.457 -22.360 0.464 143 153 154
-9.319 -22.287 0.521 69 77 79
-9.235 -22.213 0.554 75 81 79
-9.196 -22.136 0.566 70 76 64
-9.139 -22.063 0.585 137 141 124
-9.049 -21.999 0.619 125 132 116
-8.924 -21.947 0.667 102 95 89
-8.694 -21.927 0.762 248 249 243
-8.396 -21.937 0.888 110 116 104
-13.157 -20.427 -1.277 231 225 209
-13.123 -20.243 -1.286 230 225 206
-13.105 -20.052 -1.306 218 213 194
-13.076 -19.862 -1.323 232 225 207
-13.031 -19.677 -1.335 223 216 198
-12.979 -19.494 -1.345 223 216 198
-12.925 -19.310 -1.357 223 216 198
-12.864 -19.128 -1.368 223 216 198
-12.798 -18.947 -1.379 218 211 193
-12.725 -18.768 -1.388 220 213 195
-12.652 -18.588 -1.400 224 217 199
-12.579 -18.407 -1.415 224 217 199
-12.500 -18.227 -1.428 227 220 202
-12.416 -18.049 -1.442 227 220 202
-12.328 -17.872 -1.456 230 223 205
-12.237 -17.695 -1.471 230 223 205
-12.141 -17.519 -1.486 230 223 205
-12.039 -17.347 -1.501 230 223 205
-11.932 -17.176 -1.515 231 224 206
-11.819 -17.009 -1.528 231 224 206
-11.702 -16.843 -1.542 234 227 209
-11.582 -16.679 -1.557 229 222 204
-11.456 -16.518 -1.571 233 226 208
-11.325 -16.361 -1.584 223 216 198
-11.189 -16.206 -1.597 226 219 201
-11.051 -16.052 -1.612 229 222 204
-10.909 -15.900 -1.627 229 222 204
-10.762 -15.752 -1.642 228 221 203
-10.610 -15.609 -1.656 228 221 203
-10.452 -15.471 -1.669 227 220 202
-10.290 -15.338 -1.681 229 222 204
-10.122 -15.211 -1.692 227 220 202
-9.953 -15.084 -1.705 222 215 197
-9.780 -14.962 -1.717 226 219 201
-9.603 -14.842 -1.730 225 218 200
-9.425 -14.725 -1.744 224 217 199
-9.242 -14.613 -1.758 225 218 200
-9.057 -14.500 -1.774 225 218 200
-8.869 -14.391 -1.789 225 218 200
-8.677 -14.288 -1.804 225 218 200
-8.482 -14.191 -1.819 226 219 201
-8.283 -14.100 -1.833 226 219 201
-8.081 -14.012 -1.848 226 219 201
-7.877 -13.928 -1.862 225 218 200
-7.669 -13.850 -1.877 226 215 209
-7.459 -13.779 -1.890 225 219 195
-7.246 -13.712 -1.904 225 220 191
-7.031 -13.653 -1.917 225 220 188
-6.813 -13.603 -1.928 224 219 190
-6.592 -13.569 -1.935 223 217 203
-6.372 -13.522 -1.949 228 217 211
-6.149 -13.490 -1.959 223 211 187
-5.925 -18.541 0.151 123 129 127
-5.825 -18.559 0.159 111 117 115
-5.726 -18.582 0.168 117 123 123
-5.628 -18.605 0.176 106 111 114
-5.532 -18.631 0.183 92 96 99
-5.436 -18.661 0.192 81 85 88
-5.342 -18.693 0.201 68 72 75
-5.249 -18.729 0.210 68 72 75
-5.158 -18.765 0.219 69 72 77
-5.067 -18.804 0.227 73 76 81
-4.978 -18.842 0.235 81 84 89
-4.890 -18.884 0.243 75 78 83
-4.803 -18.923 0.249 110 114 115
-4.718 -18.970 0.258 94 98 99
-4.634 -19.015 0.265 73 77 80
-4.553 -19.065 0.273 72 75 80
-4.471 -19.113 0.280 69 72 77
-4.392 -19.163 0.286 74 77 82
-4.312 -19.212 0.292 76 79 84
-4.236 -19.266 0.298 76 79 84
-4.162 -19.324 0.306 78 81 86
-4.090 -19.383 0.314 79 82 87
-4.017 -19.438 0.319 79 82 87
-3.944 -19.493 0.323 80 83 88
-3.869 -19.544 0.323 80 81 83
-3.769 -19.560 0.304 91 93 92
-3.563 -19.437 0.204 88 90 87
-3.439 -19.436 0.170 56 58 53
-3.331 -19.460 0.147 122 121 117
-3.242 -19.511 0.139 117 113 110
-3.196 -19.610 0.159 116 111 108
-3.095 -19.649 0.141 107 102 99
-3.059 -19.756 0.164 110 100 99
-3.012 -19.848 0.178 111 101 100
-2.967 -19.940 0.192 109 99 98
-2.911 -20.021 0.197 108 96 96
-2.854 -20.101 0.200 110 98 98
-2.811 -20.191 0.210 112 100 100
-2.774 -20.284 0.223 114 102 102
-2.728 -20.370 0.229 115 103 103
-2.689 -20.459 0.237 116 106 105
-2.653 -20.549 0.245 116 106 105
-2.617 -20.638 0.253 116 106 105
-2.580 -20.726 0.258 116 106 105
-2.551 -20.818 0.267 120 110 111
-2.521 -20.908 0.274 116 107 108
-2.504 -21.003 0.285 115 106 107
-2.481 -21.094 0.293 113 107 107
-2.448 -21.181 0.295 112 106 106
-2.420 -21.269 0.298 110 104 104
-2.392 -21.357 0.300 114 110 111
-2.359 -21.443 0.299 84 82 85
-2.324 -21.529 0.295 51 51 53
-2.286 -21.614 0.290 34 34 36
-2.254 -21.701 0.286 18 18 20
-2.217 -21.788 0.278 4 4 6
-2.189 -21.878 0.274 14 13 18
-2.167 -21.969 0.272 49 49 51
-2.170 -22.064 0.280 100 100 98
-2.167 -22.157 0.284 15 15 17
-2.171 -22.251 0.291 15 15 17
-2.180 -22.345 0.299 18 18 18
-2.192 -22.438 0.307 13 13 13
-2.197 -22.529 0.311 34 34 34
-2.206 -22.621 0.315 39 38 36
-2.214 -22.712 0.318 36 35 33
-2.225 -22.803 0.322 61 60 58
-2.238 -22.893 0.325 53 52 50
-2.251 -22.983 0.327 14 14 16
-2.267 -23.072 0.330 28 29 33
-2.284 -23.161 0.333 30 31 35
-2.312 -23.248 0.339 35 36 40
-2.292 -23.343 0.322 9 7 10
-2.293 -23.436 0.314 8 9 13
-1.484 -23.733 -0.074 76 81 85
-2.563 -23.551 0.419 97 97 99
-2.618 -23.624 0.434 35 35 33
-2.653 -23.702 0.439 174 174 174
-2.696 -23.776 0.446 12 12 12
-2.773 -23.837 0.469 98 99 94
-3.035 -23.818 0.583 131 128 119
-3.236 -23.813 0.668 140 136 125
-3.295 -23.865 0.682 139 135 123
-3.349 -23.917 0.694 131 125 113
-3.411 -23.964 0.709 140 134 122
-3.453 -24.021 0.713 133 126 116
-3.332 -24.175 0.630 134 130 121
-2.976 -24.488 0.419 161 158 153
-2.980 -24.588 0.396 183 178 172
-2.964 -24.706 0.359 152 152 142
-2.972 -24.810 0.335 164 166 155
-3.014 -24.892 0.327 215 212 203
-3.072 -24.962 0.328 211 206 202
-3.137 -25.025 0.332 22 20 23
-3.209 -25.082 0.340 30 31 36
-3.281 -25.138 0.346 45 45 47
-3.351 -25.195 0.351 109 89 88
-3.423 -25.248 0.356 123 103 102
-3.495 -25.301 0.361 79 73 75
-3.569 -25.351 0.366 35 38 43
-3.646 -25.397 0.373 29 32 37
-3.723 -25.441 0.379 162 166 169
-3.936 -25.302 0.487 38 39 41
-4.446 -24.720 0.837 51 51 49
-4.523 -24.719 0.857 32 32 32
-4.593 -24.723 0.873 27 27 27
-4.653 -24.742 0.879 29 29 31
-4.713 -24.760 0.886 10 9 14
-4.772 -24.776 0.893 40 39 44
-4.855 -24.746 0.922 28 29 23
-4.921 -24.742 0.937 25 24 29
-4.977 -24.758 0.941 20 19 27
-5.032 -24.776 0.943 19 15 16
-5.091 -24.782 0.951 32 31 27
-5.148 -24.790 0.956 68 67 62
-5.204 -24.801 0.960 68 68 66
-5.258 -24.817 0.960 32 34 33
-5.311 -24.838 0.958 13 15 14
-5.367 -24.846 0.960 19 20 24
-5.424 -24.850 0.965 29 28 34
-5.445 -25.032 0.886 76 74 75
-5.433 -25.451 0.698 103 98 92
-5.494 -25.521 0.672 233 227 215
-5.560 -25.573 0.652 228 220 209
-5.629 -25.617 0.636 236 223 217
-5.701 -25.656 0.621 131 123 112
-5.774 -25.692 0.607 243 238 218
-5.849 -25.708 0.601 254 247 229
-5.925 -25.716 0.598 242 233 218
-6.000 -25.708 0.601 232 226 212
-6.076 -25.695 0.605 236 234 221
-6.151 -25.689 0.606 234 231 222
-6.220 -25.617 0.636 235 231 222
-7.056 -31.791 -2.187 76 58 56
-6.763 -28.276 -0.590 68 59 52
-6.418 -25.463 0.693 213 210 195
-7.357 -29.820 -1.326 102 66 70
-8.027 -31.984 -2.348 85 42 52
-8.268 -31.975 -2.369 68 25 35
-8.504 -31.942 -2.382 72 29 39
-8.736 -31.888 -2.388 64 18 28
-8.961 -31.812 -2.386 62 14 26
-9.184 -31.729 -2.383 73 25 37
-9.402 -31.636 -2.378 64 24 35
-9.605 -31.507 -2.358 28 15 25
-9.779 -31.317 -2.310 52 52 64
-9.955 -31.143 -2.271 128 131 138
-7.561 -25.873 0.350 91 86 80
-10.300 -30.806 -2.205 32 22 21
-10.587 -30.852 -2.286 39 35 34
-10.890 -30.906 -2.377 31 32 34
-11.140 -30.857 -2.417 31 40 47
-11.355 -30.748 -2.429 23 30 40
-11.559 -30.621 -2.434 25 32 42
-11.754 -30.481 -2.434 25 31 43
-11.944 -30.335 -2.433 27 33 47
-12.127 -30.178 -2.430 33 39 55
-12.301 -30.013 -2.423 33 39 55
-12.466 -29.838 -2.413 28 34 50
-12.626 -29.659 -2.403 32 38 54
-12.761 -29.457 -2.380 37 39 51
-12.865 -29.228 -2.342 32 29 36
-9.262 -25.646 -0.041 72 68 69
-8.844 -25.139 0.253 2 2 4
-8.911 -25.072 0.250 177 178 173
-8.976 -25.002 0.246 178 177 172
-9.035 -24.927 0.246 190 189 184
-9.088 -24.849 0.247 177 176 171
-9.148 -24.775 0.243 172 173 167
-9.215 -24.705 0.235 168 169 163
-9.278 -24.631 0.229 171 172 166
-9.334 -24.553 0.224 176 177 171
-9.396 -24.477 0.216 184 185 179
-9.455 -24.398 0.209 189 190 185
-9.508 -24.316 0.204 189 190 185
-9.557 -24.231 0.200 188 189 184
-9.603 -24.145 0.196 195 194 190
-9.650 -24.058 0.191 209 208 204
-9.696 -23.970 0.185 215 212 207
-9.740 -23.882 0.179 230 227 222
-9.778 -23.790 0.176 202 203 198
-9.800 -23.693 0.178 200 201 196
-9.798 -23.591 0.191 170 171 166
-9.798 -23.491 0.201 165 166 161
-9.789 -23.390 0.215 185 187 186
-9.752 -23.285 0.240 147 148 153
-9.714 -23.183 0.264 153 155 167
-9.701 -23.087 0.276 164 168 177
-9.670 -22.990 0.295 161 165 166
-9.651 -22.896 0.307 175 176 171
-9.625 -22.803 0.322 212 209 200
-9.614 -22.711 0.328 231 232 224
-9.609 -22.621 0.331 160 167 159
-9.606 -22.531 0.332 208 220 210
-9.593 -22.441 0.336 191 204 195
-9.576 -22.352 0.341 196 209 202
-9.548 -22.264 0.350 162 169 162
-9.448 -22.186 0.391 197 200 191
-9.308 -22.119 0.450 104 106 92
-9.225 -22.048 0.482 106 107 89
-9.197 -21.970 0.488 186 184 171
-9.153 -21.896 0.501 238 229 222
-9.058 -21.836 0.536 80 82 71
-8.983 -21.774 0.562 253 250 235
-13.131 -20.435 -1.412 233 217 202
-13.093 -20.253 -1.421 241 232 215
-13.067 -20.065 -1.437 234 231 212
-13.037 -19.877 -1.454 240 233 215
-12.995 -19.692 -1.467 241 234 216
-12.941 -19.511 -1.478 241 234 216
-12.888 -19.328 -1.490 239 232 214
-12.824 -19.148 -1.500 239 232 214
-12.758 -18.969 -1.511 233 226 208
-12.685 -18.791 -1.521 232 225 207
-12.614 -18.611 -1.534 232 225 207
-12.541 -18.431 -1.549 232 225 207
-12.463 -18.252 -1.563 228 221 203
-12.380 -18.075 -1.577 228 221 203
-12.292 -17.898 -1.592 227 220 202
-12.201 -17.723 -1.607 228 221 203
-12.104 -17.550 -1.622 228 221 203
-12.001 -17.379 -1.636 228 221 203
-11.894 -17.211 -1.650 229 222 204
-11.781 -17.045 -1.664 229 222 204
-11.665 -16.880 -1.678 230 223 205
-11.545 -16.718 -1.693 230 223 205
-11.420 -16.558 -1.707 229 222 204
-11.289 -16.402 -1.721 224 217 199
-11.154 -16.248 -1.735 229 222 204
-11.017 -16.096 -1.750 230 223 205
-10.876 -15.945 -1.766 229 222 204
-10.730 -15.798 -1.781 226 219 201
-10.578 -15.657 -1.795 222 215 197
-10.421 -15.520 -1.808 218 211 193
-10.261 -15.386 -1.822 217 210 192
-10.095 -15.259 -1.834 225 218 200
-9.927 -15.133 -1.847 218 211 193
-9.755 -15.012 -1.860 221 214 196
-9.580 -14.892 -1.874 224 217 199
-9.402 -14.775 -1.888 215 208 190
-9.221 -14.664 -1.903 216 209 191
-9.037 -14.551 -1.919 219 212 194
-8.850 -14.444 -1.935 223 216 198
-8.659 -14.343 -1.950 226 219 201
-8.465 -14.245 -1.966 226 219 201
-8.267 -14.154 -1.980 226 219 201
-8.067 -14.067 -1.995 223 216 198
-7.864 -13.985 -2.010 223 216 198
-7.658 -13.908 -2.025 230 219 201
-7.448 -13.839 -2.038 225 218 199
-7.237 -13.773 -2.053 225 218 212
-7.023 -13.714 -2.066 222 214 195
-6.807 -13.664 -2.078 236 223 181
-6.588 -13.630 -2.085 222 221 128
-6.368 -13.586 -2.099 203 206 53
-6.147 -13.546 -2.113 184 163 10
-5.925 -18.218 -0.082 64 72 74
-5.817 -18.233 -0.076 65 73 75
-5.710 -18.256 -0.067 64 72 75
-5.604 -18.280 -0.059 65 72 78
-5.500 -18.306 -0.050 72 75 80
-5.396 -18.336 -0.042 69 73 76
-5.294 -18.367 -0.034 80 84 87
-5.193 -18.405 -0.024 111 115 118
-5.093 -18.442 -0.015 70 75 79
-4.995 -18.483 -0.006 70 75 79
-4.898 -18.524 0.002 64 69 73
-4.803 -18.567 0.011 70 75 79
-4.708 -18.610 0.018 72 77 80
-4.615 -18.658 0.026 74 79 82
-4.524 -18.706 0.034 75 80 84
-4.435 -18.759 0.042 77 82 88
-4.346 -18.810 0.049 69 74 78
-4.259 -18.864 0.056 70 75 79
-4.173 -18.917 0.062 74 79 83
-4.089 -18.975 0.069 74 79 83
-4.008 -19.035 0.077 74 77 84
-3.927 -19.095 0.083 75 78 87
-3.848 -19.156 0.090 77 80 85
-3.767 -19.214 0.093 74 78 81
-3.685 -19.269 0.093 71 74 79
-3.597 -19.316 0.088 75 78 83
-3.498 -19.350 0.074 66 70 73
-3.389 -19.372 0.051 48 52 55
-3.259 -19.373 0.013 67 71 70
-3.117 -19.366 -0.033 45 47 46
-2.982 -19.374 -0.072 79 79 79
-2.879 -19.422 -0.089 121 119 120
-2.810 -19.506 -0.083 98 94 91
-2.758 -19.606 -0.068 114 109 105
-2.707 -19.705 -0.054 106 98 95
-2.643 -19.790 -0.050 107 97 95
-2.584 -19.879 -0.044 110 99 95
-2.530 -19.972 -0.037 112 101 97
-2.482 -20.068 -0.027 112 102 101
-2.435 -20.163 -0.019 111 102 103
-2.394 -20.262 -0.008 112 102 101
-2.356 -20.361 0.002 114 104 103
-2.316 -20.458 0.010 114 104 103
-2.278 -20.555 0.018 114 104 103
-2.238 -20.650 0.023 113 103 102
-2.200 -20.746 0.028 116 106 105
-2.169 -20.845 0.035 116 104 104
-2.139 -20.943 0.041 116 104 104
-2.104 -21.039 0.044 115 103 103
-2.079 -21.138 0.051 114 102 102
-2.062 -21.239 0.060 116 106 107
-2.050 -21.341 0.070 108 99 102
-2.040 -21.442 0.080 109 100 101
-2.047 -21.548 0.097 108 99 100
-2.058 -21.652 0.115 107 98 99
-2.064 -21.754 0.129 112 103 104
-2.071 -21.854 0.142 111 102 105
-2.076 -21.953 0.153 108 99 100
-2.085 -22.051 0.164 110 102 99
-2.098 -22.149 0.177 109 100 101
-2.113 -22.245 0.188 118 109 112
-2.131 -22.341 0.201 119 110 113
-2.155 -22.436 0.215 128 119 122
-2.179 -22.529 0.228 110 101 104
-2.205 -22.621 0.241 88 84 83
-2.223 -22.712 0.249 64 60 59
-2.245 -22.802 0.257 57 53 52
-2.262 -22.891 0.263 41 37 36
-2.278 -22.980 0.267 50 46 45
-2.301 -23.068 0.273 40 34 36
-2.330 -23.154 0.281 31 25 27
-2.360 -23.239 0.289 23 17 19
-2.403 -23.321 0.302 29 27 30
-2.185 -23.461 0.187 21 22 27
-1.641 -23.694 -0.089 82 87 91
-2.546 -23.556 0.342 17 17 17
-2.603 -23.628 0.358 8 7 5
-2.674 -23.695 0.381 6 5 3
-2.741 -23.760 0.401 39 38 36
-2.800 -23.826 0.416 67 65 66
-2.900 -23.874 0.451 87 86 84
-2.976 -23.928 0.475 95 91 88
-3.022 -23.993 0.482 123 118 114
-3.072 -24.057 0.490 124 119 113
-3.132 -24.113 0.503 141 134 124
-3.191 -24.169 0.514 133 129 118
-3.159 -24.278 0.475 130 127 120
-2.970 -24.492 0.346 17 16 12
-2.982 -24.587 0.326 159 154 148
-2.978 -24.696 0.295 205 205 195
-2.997 -24.792 0.276 176 178 167
-3.038 -24.874 0.268 66 63 54
-3.096 -24.943 0.269 127 124 119
-3.161 -25.004 0.274 74 74 72
-3.231 -25.062 0.281 32 36 37
-3.300 -25.120 0.286 31 29 32
-3.367 -25.178 0.290 95 87 85
-3.438 -25.232 0.295 102 96 96
-3.512 -25.283 0.301 63 63 65
-3.587 -25.331 0.307 12 17 23
-3.662 -25.378 0.313 30 33 40
-3.737 -25.423 0.319 79 83 86
-3.936 -25.301 0.422 6 8 7
-4.361 -24.841 0.716 131 132 126
-4.438 -24.846 0.734 129 129 121
-4.503 -24.865 0.744 131 131 123
-4.570 -24.881 0.754 135 134 129
-4.636 -24.895 0.764 137 136 132
-4.705 -24.902 0.777 138 134 131
-4.773 -24.908 0.789 138 133 114
-4.836 -24.923 0.796 142 132 120
-4.897 -24.939 0.801 139 132 122
-4.960 -24.949 0.808 139 137 124
-5.024 -24.954 0.817 139 137 125
-5.087 -24.963 0.824 128 125 116
-5.148 -24.971 0.829 133 128 122
-5.210 -24.977 0.835 134 135 129
-5.271 -24.982 0.841 134 133 128
-5.333 -24.982 0.849 128 127 122
-5.392 -24.991 0.851 124 121 114
-5.437 -25.071 0.818 134 131 124
-5.438 -25.427 0.653 90 86 74
-5.497 -25.501 0.623 202 197 178
-5.564 -25.545 0.606 208 201 183
-5.632 -25.589 0.590 214 211 204
-5.702 -25.634 0.571 83 75 64
-5.775 -25.667 0.558 234 221 204
-5.849 -25.686 0.550 243 229 216
-5.925 -25.702 0.543 37 28 21
-5.999 -25.670 0.558 49 40 31
-6.073 -25.652 0.564 51 45 29
-6.147 -25.640 0.568 59 53 39
-6.217 -25.587 0.590 83 76 66
-7.048 -31.733 -2.342 40 20 19
-6.451 -26.168 0.304 122 108 108
-6.426 -25.509 0.614 164 150 147
-7.767 -31.885 -2.467 76 36 44
-8.016 -31.935 -2.515 74 32 42
-8.257 -31.933 -2.540 67 30 38
-8.494 -31.905 -2.556 71 29 39
-8.724 -31.850 -2.561 64 20 33
-8.948 -31.774 -2.559 71 29 39
-9.170 -31.690 -2.556 59 19 28
-9.388 -31.599 -2.551 63 28 35
-9.595 -31.482 -2.536 37 21 32
-9.752 -31.255 -2.467 23 20 31
-9.887 -31.000 -2.384 27 28 33
-8.408 -27.554 -0.612 33 28 25
-10.255 -30.722 -2.344 53 42 46
-10.392 -30.507 -2.287 202 196 198
-10.866 -30.865 -2.546 79 78 83
-11.115 -30.818 -2.589 9 16 26
-11.327 -30.706 -2.599 27 33 45
-11.528 -30.578 -2.603 27 34 44
-11.721 -30.437 -2.603 24 30 42
-11.910 -30.291 -2.602 26 32 46
-12.092 -30.136 -2.598 31 37 53
-12.265 -29.971 -2.591 33 39 55
-12.427 -29.795 -2.579 33 39 55
-12.584 -29.616 -2.568 35 41 57
-12.712 -29.409 -2.540 42 42 52
-12.819 -29.185 -2.502 35 30 36
-9.106 -25.505 -0.031 51 49 50
-8.829 -25.126 0.186 74 75 79
-8.896 -25.060 0.182 46 45 41
-8.955 -24.986 0.182 178 175 168
-9.012 -24.911 0.182 180 177 170
-9.064 -24.832 0.184 165 162 155
-9.123 -24.758 0.181 157 157 149
-9.196 -24.692 0.169 155 155 145
-9.260 -24.620 0.161 156 156 146
-9.320 -24.544 0.154 160 160 150
-9.380 -24.468 0.147 164 164 154
-9.437 -24.389 0.140 168 168 158
-9.490 -24.307 0.135 170 169 164
-9.543 -24.225 0.128 167 166 162
-9.602 -24.144 0.117 85 87 86
-9.650 -24.058 0.111 70 71 73
-9.700 -23.972 0.104 187 187 185
-9.752 -23.885 0.094 192 191 187
-9.798 -23.796 0.085 220 219 214
-9.823 -23.700 0.087 243 242 237
-9.829 -23.599 0.097 181 180 175
-9.821 -23.496 0.111 223 222 217
-9.792 -23.390 0.135 174 176 173
-9.757 -23.286 0.160 20 24 27
-9.731 -23.185 0.180 49 53 62
-9.706 -23.087 0.198 132 139 147
-9.683 -22.991 0.214 40 45 51
-9.664 -22.897 0.227 56 56 58
-9.655 -22.804 0.233 199 196 189
-9.655 -22.712 0.235 115 116 102
-9.658 -22.621 0.234 251 252 238
-9.680 -22.529 0.223 249 251 237
-9.677 -22.437 0.223 216 218 205
-9.657 -22.346 0.230 177 180 169
-9.638 -22.255 0.235 167 168 160
-9.619 -22.165 0.240 140 141 133
-9.594 -22.077 0.246 146 146 136
-9.525 -21.996 0.272 225 222 213
-9.428 -21.924 0.311 226 227 213
-9.347 -21.852 0.341 210 208 196
-9.362 -21.760 0.324 230 232 219
-9.729 -21.568 0.133 255 236 222
-13.076 -20.451 -1.535 131 103 91
-13.050 -20.267 -1.549 228 216 200
-13.024 -20.081 -1.566 223 222 202
-12.996 -19.893 -1.585 227 220 202
-12.951 -19.710 -1.597 229 220 203
-12.900 -19.529 -1.609 227 220 202
-12.846 -19.347 -1.621 227 220 202
-12.781 -19.170 -1.630 227 220 202
-12.713 -18.992 -1.641 229 222 204
-12.641 -18.816 -1.651 228 221 203
-12.571 -18.637 -1.665 226 219 201
-12.498 -18.458 -1.680 228 221 203
-12.420 -18.281 -1.695 229 222 204
-12.338 -18.104 -1.710 229 222 204
-12.251 -17.929 -1.725 229 222 204
-12.160 -17.755 -1.741 230 223 205
-12.063 -17.583 -1.756 230 223 205
-11.962 -17.413 -1.771 230 223 205
-11.855 -17.246 -1.785 232 225 207
-11.743 -17.081 -1.800 232 225 207
-11.628 -16.918 -1.815 235 228 210
-11.508 -16.756 -1.830 235 228 210
-11.383 -16.598 -1.845 233 226 208
-11.254 -16.442 -1.859 235 228 210
-11.121 -16.289 -1.874 240 233 215
-10.984 -16.138 -1.889 238 231 213
-10.844 -15.988 -1.906 242 235 217
-10.698 -15.843 -1.921 239 232 214
-10.548 -15.702 -1.936 238 231 213
-10.392 -15.566 -1.949 236 229 211
-10.232 -15.434 -1.963 232 225 207
-10.067 -15.308 -1.975 229 222 204
-9.901 -15.182 -1.990 228 221 203
-9.730 -15.060 -2.004 223 216 198
-9.557 -14.941 -2.018 225 218 200
-9.380 -14.825 -2.033 223 216 198
-9.200 -14.714 -2.048 226 219 201
-9.017 -14.603 -2.064 226 219 201
-8.832 -14.496 -2.081 223 216 198
-8.641 -14.397 -2.097 223 216 198
-8.448 -14.301 -2.112 226 219 201
-8.252 -14.211 -2.127 226 219 201
-8.053 -14.125 -2.142 223 216 198
-7.851 -14.044 -2.158 223 216 198
-7.645 -13.969 -2.172 233 221 205
-7.437 -13.903 -2.185 226 218 205
-7.227 -13.838 -2.199 224 220 175
-7.015 -13.777 -2.214 218 213 61
-6.801 -13.725 -2.228 226 210 3
-6.584 -13.686 -2.237 239 196 40
-6.366 -13.641 -2.252 200 118 45
-6.146 -13.601 -2.267 161 50 39
-5.925 -17.917 -0.320 63 68 74
-5.809 -17.932 -0.313 66 71 77
-5.695 -17.957 -0.303 68 73 79
-5.582 -17.982 -0.294 66 71 77
-5.470 -18.010 -0.285 66 71 77
-5.360 -18.041 -0.276 70 75 81
-5.250 -18.075 -0.266 68 73 79
-5.142 -18.112 -0.257 68 73 79
-5.035 -18.149 -0.249 67 74 80
-4.929 -18.189 -0.240 66 73 79
-4.825 -18.230 -0.232 66 73 79
-4.722 -18.275 -0.224 65 72 78
-4.620 -18.320 -0.216 67 75 77
-4.520 -18.370 -0.208 67 75 78
-4.422 -18.422 -0.199 65 72 78
-4.326 -18.477 -0.191 69 76 84
-4.231 -18.531 -0.183 67 74 80
-4.137 -18.587 -0.176 68 75 81
-4.043 -18.643 -0.170 69 74 80
-3.952 -18.703 -0.163 71 74 81
-3.864 -18.765 -0.156 73 73 81
-3.775 -18.827 -0.150 73 73 81
-3.688 -18.889 -0.145 75 75 83
-3.603 -18.955 -0.140 75 75 83
-3.520 -19.022 -0.134 73 76 83
-3.438 -19.091 -0.129 73 78 82
-3.359 -19.161 -0.124 72 77 81
-3.279 -19.232 -0.120 70 75 79
-3.192 -19.292 -0.124 69 73 76
-3.093 -19.338 -0.138 64 68 69
-2.959 -19.349 -0.178 34 38 39
-2.814 -19.354 -0.224 16 20 21
-2.669 -19.366 -0.270 58 58 58
-2.551 -19.409 -0.297 106 104 105
-2.467 -19.487 -0.301 103 99 100
-2.398 -19.579 -0.297 110 106 107
-2.333 -19.673 -0.292 112 108 105
-2.274 -19.772 -0.284 107 104 99
-2.217 -19.872 -0.276 110 102 100
-2.166 -19.974 -0.267 109 99 98
-2.120 -20.079 -0.256 110 100 101
-2.077 -20.185 -0.246 111 101 100
-2.034 -20.289 -0.237 115 105 103
-1.988 -20.391 -0.231 113 103 101
-1.944 -20.493 -0.226 112 100 100
-1.900 -20.595 -0.222 115 103 103
-1.860 -20.698 -0.218 116 104 104
-1.825 -20.804 -0.212 113 101 101
-1.789 -20.908 -0.207 113 101 101
-1.765 -21.016 -0.199 108 98 97
-1.746 -21.126 -0.189 111 101 100
-1.733 -21.236 -0.177 107 97 96
-1.729 -21.348 -0.162 105 95 96
-1.735 -21.461 -0.144 105 94 98
-1.746 -21.574 -0.124 106 95 99
-1.758 -21.685 -0.106 110 99 103
-1.774 -21.795 -0.087 110 98 102
-1.789 -21.903 -0.070 110 98 102
-1.800 -22.009 -0.056 113 101 103
-1.811 -22.114 -0.044 113 101 101
-1.824 -22.217 -0.032 111 101 102
-1.840 -22.320 -0.020 112 102 103
-1.865 -22.421 -0.004 113 103 104
-1.892 -22.522 0.011 114 104 105
-1.925 -22.621 0.028 113 105 103
-1.961 -22.718 0.045 113 105 103
-1.994 -22.814 0.060 113 105 103
-2.029 -22.908 0.074 113 105 103
-2.066 -23.001 0.088 113 104 105
-2.103 -23.092 0.101 116 107 108
-2.153 -23.180 0.120 116 107 108
-2.205 -23.266 0.138 116 107 108
-2.263 -23.349 0.159 122 113 116
-1.953 -23.513 -0.007 116 112 113
-1.703 -23.678 -0.146 76 76 76
-2.364 -23.606 0.178 123 117 117
-2.415 -23.685 0.192 122 117 113
-2.465 -23.764 0.203 119 114 110
-2.503 -23.845 0.208 116 111 107
-2.547 -23.924 0.215 110 105 101
-2.598 -23.999 0.224 109 104 101
-2.654 -24.071 0.236 111 105 105
-2.712 -24.140 0.248 113 105 103
-2.782 -24.203 0.265 116 108 106
-2.863 -24.258 0.288 114 109 105
-2.942 -24.311 0.309 99 96 91
-2.971 -24.391 0.302 89 86 81
-2.952 -24.503 0.265 98 94 91
-2.981 -24.588 0.254 88 84 75
-2.996 -24.684 0.233 131 128 119
-3.026 -24.771 0.220 54 55 49
-3.071 -24.847 0.215 37 39 34
-3.121 -24.922 0.211 74 76 75
-3.180 -24.989 0.212 5 6 8
-3.245 -25.050 0.216 14 15 19
-3.315 -25.105 0.223 23 24 26
-3.385 -25.160 0.229 30 34 35
-3.457 -25.213 0.235 30 35 38
-3.528 -25.265 0.240 26 31 37
-3.601 -25.314 0.246 33 37 46
-3.677 -25.360 0.253 38 42 53
-3.752 -25.404 0.259 132 136 145
-4.038 -25.164 0.439 124 128 131
-4.223 -25.036 0.543 111 113 110
-4.294 -25.061 0.553 121 123 118
-4.361 -25.089 0.559 130 133 126
-4.430 -25.114 0.567 130 133 124
-4.500 -25.136 0.575 127 130 119
-4.573 -25.150 0.586 133 128 122
-4.644 -25.165 0.596 161 149 135
-4.716 -25.177 0.606 185 167 147
-4.784 -25.194 0.612 134 117 99
-4.852 -25.211 0.618 135 129 107
-4.922 -25.220 0.626 141 138 119
-4.991 -25.231 0.633 133 132 114
-5.058 -25.243 0.638 135 133 118
-5.128 -25.246 0.647 137 135 123
-5.197 -25.251 0.654 134 132 120
-5.266 -25.249 0.664 133 131 119
-5.336 -25.241 0.676 133 129 118
-5.401 -25.250 0.678 129 124 118
-5.442 -25.404 0.607 24 21 14
-5.502 -25.471 0.579 103 100 91
-5.568 -25.513 0.563 133 130 121
-5.634 -25.567 0.540 108 107 103
-5.703 -25.620 0.517 69 68 66
-5.777 -25.633 0.513 15 17 14
-5.850 -25.647 0.507 21 30 29
-5.925 -25.640 0.511 18 23 26
-5.998 -25.619 0.521 44 44 44
-6.072 -25.614 0.522 117 112 106
-6.145 -25.611 0.521 131 123 112
-6.218 -25.596 0.526 158 149 134
-7.033 -31.609 -2.466 110 76 77
-6.402 -25.839 0.395 78 69 74
-7.009 -28.868 -1.127 49 39 47
-7.765 -31.873 -2.652 76 40 50
-8.010 -31.907 -2.694 79 44 51
-8.248 -31.897 -2.716 71 38 45
-8.483 -31.867 -2.731 63 28 35
-8.711 -31.808 -2.734 64 27 35
-8.935 -31.734 -2.733 55 20 27
-9.155 -31.650 -2.729 54 21 28
-9.372 -31.558 -2.724 50 19 25
-9.577 -31.440 -2.707 47 16 31
-9.768 -31.291 -2.677 38 15 25
-9.379 -29.924 -1.984 56 52 51
-9.186 -29.100 -1.577 145 141 140
-10.195 -30.611 -2.468 68 56 56
-9.195 -28.394 -1.272 49 45 44
-10.836 -30.815 -2.711 158 162 165
-11.083 -30.767 -2.755 28 35 45
-11.296 -30.660 -2.768 26 33 43
-11.496 -30.532 -2.771 23 30 40
-11.687 -30.391 -2.771 24 30 42
-11.873 -30.244 -2.768 28 34 50
-12.053 -30.089 -2.764 31 37 53
-12.226 -29.926 -2.758 32 38 54
-12.387 -29.751 -2.745 31 37 53
-12.543 -29.572 -2.733 33 39 55
-12.663 -29.359 -2.700 50 47 58
-12.778 -29.146 -2.666 41 35 39
-8.843 -25.266 0.058 56 52 51
-8.794 -25.096 0.131 126 124 125
-8.870 -25.038 0.121 74 70 67
-8.931 -24.967 0.120 171 168 163
-8.990 -24.894 0.118 172 167 161
-9.042 -24.816 0.120 212 205 197
-9.098 -24.741 0.118 184 181 176
-9.171 -24.677 0.105 165 164 160
-9.237 -24.606 0.096 156 155 151
-9.297 -24.531 0.089 152 151 147
-9.356 -24.455 0.081 152 153 147
-9.414 -24.377 0.073 160 157 148
-9.467 -24.296 0.068 163 160 151
-9.526 -24.217 0.057 158 159 153
-9.584 -24.137 0.046 17 22 26
-9.631 -24.051 0.041 7 10 17
-9.684 -23.966 0.031 36 37 42
-9.729 -23.878 0.024 14 14 16
-9.773 -23.788 0.017 203 202 200
-9.802 -23.694 0.016 230 229 227
-9.810 -23.594 0.024 215 214 212
-9.804 -23.492 0.039 204 203 201
-9.778 -23.387 0.062 190 192 191
-9.740 -23.283 0.090 138 142 145
-9.705 -23.182 0.115 45 48 53
-9.682 -23.084 0.133 25 28 33
-9.666 -22.989 0.146 21 25 28
-9.651 -22.896 0.157 30 34 37
-9.655 -22.804 0.158 175 176 171
-9.668 -22.713 0.153 252 254 240
-9.688 -22.621 0.144 255 255 239
-9.699 -22.528 0.138 255 255 239
-9.706 -22.435 0.133 255 255 241
-9.702 -22.342 0.132 140 139 134
-9.688 -22.250 0.135 234 233 228
-9.672 -22.159 0.138 235 234 229
-9.654 -22.068 0.141 237 236 231
-9.602 -21.983 0.159 229 228 223
-9.533 -21.903 0.186 236 232 221
-9.482 -21.822 0.202 225 228 217
-9.459 -21.736 0.203 219 216 207
-10.408 -21.380 -0.294 249 228 211
-13.024 -20.467 -1.659 132 92 84
-12.998 -20.284 -1.674 231 222 205
-12.972 -20.099 -1.691 226 221 202
-12.949 -19.911 -1.713 228 219 202
-12.905 -19.729 -1.726 225 218 200
-12.855 -19.549 -1.738 224 217 199
-12.800 -19.369 -1.750 228 221 203
-12.735 -19.193 -1.760 225 218 200
-12.667 -19.017 -1.770 226 219 201
-12.597 -18.841 -1.782 225 218 200
-12.526 -18.664 -1.796 222 215 197
-12.454 -18.486 -1.812 224 217 199
-12.376 -18.310 -1.826 226 219 201
-12.293 -18.136 -1.841 227 220 202
-12.206 -17.962 -1.857 225 218 200
-12.116 -17.789 -1.873 225 218 200
-12.021 -17.618 -1.889 224 217 199
-11.921 -17.448 -1.905 222 215 197
-11.815 -17.282 -1.920 225 218 200
-11.704 -17.119 -1.935 227 220 202
-11.589 -16.957 -1.950 227 220 202
-11.470 -16.797 -1.966 223 216 198
-11.346 -16.639 -1.981 219 212 194
-11.218 -16.484 -1.997 216 209 191
-11.085 -16.333 -2.012 223 216 198
-10.950 -16.182 -2.028 226 219 201
-10.810 -16.034 -2.044 225 218 200
-10.665 -15.890 -2.060 225 218 200
-10.516 -15.750 -2.075 226 219 201
-10.361 -15.615 -2.089 224 217 199
-10.202 -15.484 -2.104 218 211 193
-10.039 -15.358 -2.116 225 218 200
-9.874 -15.232 -2.131 225 218 200
-9.704 -15.111 -2.146 225 218 200
-9.532 -14.993 -2.161 218 211 193
-9.357 -14.878 -2.177 216 209 191
-9.177 -14.769 -2.191 218 211 193
-8.995 -14.660 -2.208 216 209 191
-8.811 -14.554 -2.225 218 211 193
-8.622 -14.455 -2.241 218 211 193
-8.430 -14.361 -2.257 221 214 195
-8.235 -14.272 -2.272 224 217 198
-8.037 -14.187 -2.288 228 221 202
-7.836 -14.107 -2.303 232 225 206
-7.633 -14.034 -2.318 234 226 205
-7.426 -13.968 -2.331 233 229 204
-7.218 -13.904 -2.346 233 219 218
-7.007 -13.843 -2.361 182 173 32
-6.795 -13.787 -2.378 225 188 45
-6.579 -13.747 -2.388 181 57 94
-6.363 -13.699 -2.405 200 48 89
-6.144 -13.663 -2.419 190 48 70
-5.925 -17.617 -0.570 61 68 74
-5.802 -17.637 -0.561 61 68 74
-5.681 -17.663 -0.550 60 67 73
-5.561 -17.691 -0.539 62 69 75
-5.442 -17.720 -0.530 60 67 73
-5.324 -17.751 -0.520 63 70 76
-5.207 -17.785 -0.511 63 70 76
-5.092 -17.820 -0.503 63 70 76
-4.977 -17.857 -0.495 64 71 77
-4.864 -17.897 -0.487 64 71 77
-4.752 -17.938 -0.479 65 72 78
-4.642 -17.985 -0.471 63 70 76
-4.533 -18.032 -0.463 65 73 76
-4.426 -18.084 -0.454 65 73 76
-4.321 -18.139 -0.445 65 72 78
-4.217 -18.195 -0.436 66 73 81
-4.116 -18.254 -0.428 64 73 78
-4.015 -18.314 -0.420 66 73 79
-3.916 -18.374 -0.413 68 73 79
-3.819 -18.438 -0.405 69 72 79
-3.724 -18.504 -0.398 70 73 80
-3.630 -18.571 -0.391 70 73 80
-3.538 -18.639 -0.385 71 74 81
-3.446 -18.707 -0.379 71 74 81
-3.359 -18.781 -0.372 69 74 78
-3.273 -18.856 -0.365 70 75 79
-3.192 -18.937 -0.356 69 74 78
-3.116 -19.022 -0.345 68 73 77
-3.043 -19.110 -0.333 70 74 77
-2.968 -19.193 -0.325 71 75 78
-2.889 -19.272 -0.322 68 72 75
-2.804 -19.344 -0.324 66 70 73
-2.693 -19.390 -0.347 51 55 56
-2.560 -19.418 -0.386 35 36 38
-2.415 -19.440 -0.433 77 78 80
-2.288 -19.484 -0.467 40 41 43
-2.183 -19.551 -0.486 34 38 39
-2.095 -19.633 -0.495 27 28 30
-2.012 -19.719 -0.502 33 33 35
-1.939 -19.814 -0.504 58 53 57
-1.872 -19.913 -0.503 97 92 96
-1.810 -20.016 -0.501 106 101 107
-1.757 -20.123 -0.496 123 118 122
-1.708 -20.232 -0.489 113 109 110
-1.661 -20.342 -0.483 113 107 109
-1.621 -20.455 -0.475 107 101 103
-1.581 -20.566 -0.468 108 102 104
-1.541 -20.678 -0.463 108 102 104
-1.507 -20.791 -0.456 115 106 107
