ply
format ascii 1.0
element vertex 1477
property float x
property float y
property float z
property uchar red
property uchar green
property uchar blue
end_header
-62.669 -31.592 0.912 133 125 112
-62.750 -31.423 0.905 129 123 111
-62.803 -31.248 0.901 104 104 96
-62.742 -31.057 0.914 28 30 25
-62.708 -30.874 0.922 22 22 20
-62.722 -30.696 0.922 22 23 18
-62.844 -30.523 0.906 33 36 29
-63.110 -30.349 0.867 81 76 70
-63.154 -30.161 0.861 74 66 63
-63.174 -29.972 0.858 85 80 76
-63.200 -29.782 0.853 96 93 88
-63.206 -29.591 0.850 97 94 89
-63.206 -29.400 0.848 112 112 104
-63.205 -29.208 0.845 112 112 104
-63.201 -29.015 0.841 116 116 108
-63.190 -28.822 0.838 123 123 115
-63.174 -28.630 0.836 58 53 49
-63.155 -28.437 0.833 106 103 88
-63.126 -28.245 0.830 106 102 93
-63.090 -28.054 0.828 57 52 48
-63.051 -27.863 0.826 77 69 58
-63.042 -27.662 0.818 74 72 57
-63.292 -27.364 0.768 37 44 26
-63.873 -26.922 0.665 113 121 100
-64.838 -26.283 0.497 54 58 44
-65.018 -25.931 0.452 113 117 103
-63.153 -26.530 0.740 171 173 160
-64.526 -25.605 0.497 155 155 143
-65.002 -25.069 0.398 36 29 19
-64.989 -24.772 0.378 14 36 13
-64.962 -24.475 0.359 39 41 20
-64.870 -24.212 0.351 88 70 60
-64.757 -23.959 0.344 51 24 15
-64.662 -23.691 0.333 59 43 30
-64.532 -23.444 0.327 19 26 10
-64.378 -23.213 0.325 3 17 0
-64.257 -22.954 0.315 41 48 32
-63.998 -22.809 0.330 47 51 36
-63.921 -22.507 0.309 47 51 36
-63.761 -22.272 0.303 39 43 28
-63.484 -22.152 0.320 35 37 23
-63.069 -22.185 0.366 90 94 80
-63.150 -21.693 0.305 91 98 80
-63.044 -21.386 0.281 45 56 26
-62.854 -21.170 0.275 104 111 80
-62.636 -20.986 0.274 76 89 61
-62.414 -20.805 0.272 26 38 14
-61.266 -21.939 0.508 132 136 113
-60.445 -22.723 0.673 125 119 97
-60.265 -22.597 0.672 131 123 104
-60.084 -22.471 0.670 127 114 97
-61.165 -20.118 0.288 54 38 15
-61.021 -19.786 0.255 151 166 133
-59.672 -21.823 0.615 112 125 95
-59.296 -22.082 0.674 130 124 102
-59.102 -21.978 0.672 133 122 104
-58.905 -21.882 0.671 129 121 102
-58.705 -21.788 0.669 131 123 104
-58.500 -21.706 0.668 109 102 86
-58.291 -21.637 0.668 93 93 85
-58.085 -21.558 0.666 81 82 77
-57.880 -21.473 0.663 118 134 121
-57.674 -21.382 0.657 93 78 71
-57.466 -21.295 0.652 46 17 13
-57.254 -21.218 0.647 69 61 48
-57.038 -21.152 0.644 131 96 92
-56.822 -21.084 0.639 111 86 79
-56.602 -21.025 0.634 132 112 103
-56.381 -20.968 0.630 102 80 66
-56.157 -20.923 0.626 136 117 100
-55.931 -20.878 0.621 82 60 46
-55.704 -20.827 0.615 115 96 82
-54.244 -28.501 1.659 126 130 129
-54.194 -28.520 1.656 57 59 56
-54.152 -28.550 1.656 135 138 129
-54.107 -28.576 1.654 133 138 131
-54.059 -28.598 1.652 115 121 117
-54.016 -28.628 1.651 132 141 136
-53.975 -28.661 1.650 44 54 45
-53.933 -28.693 1.648 88 94 90
-53.889 -28.724 1.647 95 95 95
-53.848 -28.757 1.645 88 84 83
-53.804 -28.790 1.643 87 84 75
-53.762 -28.825 1.641 113 111 99
-53.724 -28.862 1.640 106 102 91
-53.691 -28.904 1.640 92 88 76
-53.663 -28.951 1.640 79 76 67
-53.643 -29.001 1.642 59 59 49
-53.626 -29.053 1.644 80 80 68
-53.612 -29.106 1.647 59 60 46
-53.600 -29.159 1.649 83 86 65
-53.587 -29.211 1.651 107 111 86
-53.568 -29.259 1.652 91 96 64
-53.556 -29.311 1.653 124 130 94
-53.555 -29.366 1.657 130 135 103
-53.571 -29.427 1.663 111 114 93
-53.586 -29.485 1.669 62 64 50
-53.594 -29.540 1.673 63 65 52
-53.599 -29.592 1.676 116 118 97
-53.603 -29.643 1.679 142 144 122
-53.605 -29.693 1.682 117 119 98
-53.620 -29.745 1.686 142 143 125
-53.573 -29.783 1.680 176 180 155
-53.542 -29.826 1.676 137 141 116
-53.528 -29.872 1.675 75 77 56
-53.510 -29.919 1.673 72 73 59
-53.496 -29.966 1.672 134 130 119
-53.488 -30.015 1.671 90 88 75
-53.482 -30.063 1.671 101 100 80
-53.492 -30.113 1.672 89 92 65
-53.505 -30.161 1.675 71 72 41
-53.510 -30.209 1.676 134 134 98
-53.516 -30.257 1.676 139 140 98
-53.518 -30.306 1.676 108 109 67
-53.519 -30.354 1.676 117 120 91
-53.526 -30.402 1.676 87 91 64
-53.547 -30.447 1.678 97 102 72
-53.638 -30.480 1.692 152 156 131
-53.775 -30.770 1.702 110 112 109
-53.523 -30.914 1.655 191 193 182
-53.461 -30.996 1.640 165 165 155
-53.450 -31.059 1.634 153 153 153
-53.448 -31.120 1.630 133 134 139
-53.432 -31.189 1.622 134 133 131
-53.392 -31.275 1.610 180 178 166
-53.368 -31.355 1.600 161 155 143
-53.376 -31.419 1.596 158 150 139
-49.785 -33.764 0.888 193 193 183
-51.933 -32.528 1.297 207 201 189
-53.259 -31.722 1.553 177 164 148
-53.296 -31.778 1.552 171 158 141
-53.338 -31.829 1.552 170 158 144
-53.395 -31.869 1.556 28 28 26
-53.419 -31.935 1.552 37 37 37
-53.427 -32.018 1.544 33 28 22
-53.382 -32.154 1.523 186 176 166
-53.400 -32.236 1.516 184 175 166
-53.425 -32.315 1.509 164 156 137
-53.483 -32.360 1.510 79 68 62
-53.546 -32.398 1.512 51 45 47
-53.584 -32.466 1.508 81 79 80
-53.597 -32.568 1.496 74 69 65
-53.566 -32.736 1.471 184 176 163
-53.607 -32.814 1.464 140 134 118
-53.659 -32.879 1.460 163 156 138
-53.739 -32.903 1.464 155 151 142
-53.831 -32.904 1.472 42 42 44
-53.889 -32.960 1.469 38 36 37
-53.943 -33.028 1.463 41 37 36
-53.981 -33.130 1.451 85 80 74
-53.999 -33.283 1.430 182 174 163
-54.053 -33.370 1.420 190 177 169
-54.115 -33.444 1.413 182 174 163
-54.187 -33.501 1.409 134 129 123
-54.260 -33.556 1.405 113 113 113
-54.312 -33.683 1.388 76 81 77
-54.368 -33.810 1.370 83 106 96
-54.398 -34.052 1.333 70 93 85
-54.449 -34.256 1.303 40 55 52
-54.540 -34.324 1.296 67 70 75
-54.636 -34.379 1.290 71 78 86
-54.732 -34.443 1.283 71 75 86
-54.830 -34.511 1.274 79 77 88
-54.930 -34.580 1.265 164 164 172
-55.034 -34.645 1.256 58 62 71
-55.140 -34.705 1.248 69 73 82
-55.249 -34.761 1.240 49 53 62
-55.361 -34.816 1.231 66 70 79
-55.475 -34.879 1.221 159 159 171
-55.592 -34.939 1.211 185 184 192
-55.712 -34.985 1.203 0 0 0
-55.835 -35.036 1.193 60 63 44
-55.961 -35.093 1.182 180 186 174
-56.088 -35.127 1.174 190 196 194
-56.216 -35.153 1.167 124 129 135
-56.346 -35.180 1.159 33 38 41
-56.477 -35.196 1.152 70 70 78
-56.608 -35.207 1.146 60 64 75
-56.742 -35.220 1.139 66 77 83
-56.883 -35.249 1.128 68 80 76
-57.164 -35.728 1.040 122 131 102
-57.357 -35.858 1.009 94 106 56
-57.502 -35.826 1.007 42 57 2
-57.624 -35.733 1.014 59 73 40
-57.592 -35.271 1.087 58 64 62
-57.752 -35.298 1.072 54 60 60
-58.009 -35.519 1.022 41 49 36
-58.186 -35.548 1.004 97 107 80
-58.342 -35.524 0.996 102 128 83
-58.443 -35.400 1.006 123 128 108
-58.396 -35.035 1.062 167 173 169
-58.614 -35.118 1.031 102 117 86
-58.814 -35.158 1.008 134 132 93
-58.898 -35.022 1.018 160 153 111
-58.879 -34.750 1.057 159 146 127
-58.980 -34.652 1.060 157 147 138
-59.109 -34.589 1.054 166 156 144
-59.236 -34.521 1.049 160 150 140
-59.380 -34.469 1.040 143 134 125
-59.515 -34.404 1.033 97 90 82
-59.633 -34.319 1.029 35 31 22
-59.739 -34.221 1.028 65 62 53
-59.853 -34.129 1.024 55 54 50
-59.964 -34.033 1.021 9 9 9
-60.070 -33.932 1.019 14 13 18
-60.168 -33.823 1.017 10 11 16
-60.270 -33.717 1.014 12 12 20
-60.374 -33.612 1.011 6 6 16
-60.481 -33.506 1.006 13 16 21
-60.584 -33.396 1.002 7 8 12
-60.947 -33.441 0.947 110 110 112
-60.825 -33.192 0.985 11 11 11
-60.859 -33.039 0.992 9 9 11
-60.928 -32.906 0.992 6 6 8
-61.017 -32.782 0.988 13 13 15
-61.103 -32.656 0.984 10 10 12
-61.187 -32.527 0.979 9 9 7
-61.324 -32.417 0.965 123 122 117
-61.942 -32.475 0.866 137 133 122
-62.085 -32.345 0.851 135 125 113
-62.310 -32.234 0.821 136 127 112
-62.398 -32.077 0.814 136 124 108
-62.487 -31.918 0.807 140 129 111
-62.575 -31.755 0.799 137 124 105
-62.650 -31.588 0.792 137 125 101
-62.719 -31.418 0.786 133 125 106
-62.773 -31.244 0.782 122 118 107
-62.741 -31.057 0.791 24 23 21
-62.701 -30.873 0.801 29 28 26
-62.720 -30.696 0.801 29 30 25
-62.810 -30.522 0.788 21 24 17
-63.087 -30.348 0.743 86 81 75
-63.131 -30.161 0.736 75 67 64
-63.163 -29.972 0.730 69 64 60
-63.179 -29.783 0.727 77 74 69
-63.182 -29.593 0.724 80 77 72
-63.189 -29.401 0.720 114 114 106
-63.185 -29.210 0.717 113 113 105
-63.176 -29.019 0.715 111 111 103
-63.166 -28.827 0.711 125 125 117
-63.152 -28.634 0.708 127 122 119
-63.134 -28.441 0.704 83 80 63
-63.108 -28.249 0.701 77 73 62
-63.065 -28.061 0.700 76 71 67
-63.026 -27.871 0.697 95 82 76
-63.024 -27.667 0.687 111 102 95
-65.243 -26.666 0.287 41 43 30
-65.289 -26.376 0.263 52 59 43
-65.268 -26.105 0.250 25 31 17
-65.198 -25.851 0.244 29 36 20
-65.121 -25.599 0.238 47 51 36
-65.028 -25.353 0.234 24 27 10
-64.957 -25.093 0.225 31 28 13
-64.825 -24.865 0.226 33 42 25
-62.817 -25.761 0.587 155 160 153
-63.096 -25.335 0.511 22 22 20
-64.442 -24.170 0.220 84 85 71
-64.537 -23.779 0.170 48 51 34
-64.370 -23.564 0.172 15 23 10
-64.236 -23.324 0.165 20 25 18
-63.569 -23.519 0.271 91 92 86
-61.735 -24.761 0.635 93 94 88
-61.698 -24.521 0.613 41 42 36
-61.560 -24.368 0.613 110 111 105
-61.396 -24.240 0.618 109 108 106
-61.268 -24.077 0.613 37 37 35
-61.333 -23.698 0.560 87 90 81
-62.978 -21.463 0.103 15 23 0
-62.798 -21.239 0.094 73 80 49
-62.580 -21.057 0.093 41 50 21
-62.371 -20.863 0.089 59 67 43
-61.797 -21.185 0.187 127 127 103
-60.430 -22.745 0.527 133 127 105
-60.258 -22.608 0.524 136 128 107
-60.081 -22.477 0.521 140 129 111
-60.311 -21.625 0.380 125 114 96
-61.015 -19.796 0.060 68 70 48
-60.418 -20.341 0.185 120 119 98
-59.290 -22.095 0.527 138 130 111
-59.092 -22.002 0.526 134 123 105
-58.893 -21.910 0.525 134 123 105
-58.696 -21.812 0.523 134 123 105
-58.493 -21.726 0.521 126 117 102
-58.286 -21.652 0.520 106 106 98
-58.079 -21.578 0.519 67 66 62
-57.874 -21.495 0.515 96 99 92
-57.669 -21.404 0.509 84 75 70
-57.461 -21.320 0.504 81 66 63
-57.249 -21.243 0.499 121 122 114
-57.035 -21.174 0.494 120 109 103
-56.818 -21.110 0.489 133 120 114
-56.599 -21.051 0.484 131 118 110
-56.378 -20.996 0.480 95 84 78
-56.155 -20.950 0.475 42 34 31
-55.930 -20.906 0.470 15 14 9
-55.703 -20.861 0.464 35 36 31
-54.247 -28.505 1.625 186 191 185
-54.190 -28.515 1.620 138 142 125
-54.131 -28.524 1.615 123 127 102
-54.076 -28.539 1.610 93 94 76
-54.035 -28.573 1.610 97 99 85
-53.995 -28.607 1.609 120 124 107
-53.956 -28.643 1.609 126 130 113
-53.917 -28.677 1.608 56 58 45
-53.879 -28.714 1.608 42 43 38
-53.844 -28.754 1.608 55 56 51
-53.796 -28.783 1.605 83 83 71
-53.747 -28.813 1.601 85 87 74
-53.714 -28.855 1.601 31 31 21
-53.690 -28.904 1.603 63 63 55
-53.672 -28.956 1.605 51 51 49
-53.652 -29.007 1.607 132 132 130
-53.631 -29.056 1.609 94 95 87
-53.615 -29.107 1.611 102 104 90
-53.594 -29.156 1.612 54 56 34
-53.567 -29.201 1.611 89 92 65
-53.542 -29.247 1.611 114 117 86
-53.530 -29.299 1.613 136 140 107
-53.522 -29.352 1.615 131 134 103
-53.524 -29.408 1.619 111 114 87
-53.523 -29.463 1.623 138 140 118
-53.514 -29.513 1.624 102 104 80
-53.502 -29.563 1.625 108 109 78
-53.497 -29.614 1.626 120 121 90
-53.490 -29.664 1.628 133 133 105
-53.491 -29.716 1.630 107 107 79
-53.501 -29.768 1.634 94 96 72
-53.500 -29.818 1.635 102 106 81
-53.504 -29.869 1.637 54 57 36
-53.502 -29.918 1.638 35 38 29
-53.493 -29.966 1.638 73 72 70
-53.484 -30.014 1.637 67 63 62
-53.475 -30.063 1.636 58 55 50
-53.472 -30.112 1.635 118 117 99
-53.474 -30.161 1.636 121 124 95
-53.486 -30.210 1.638 99 102 71
-53.502 -30.258 1.640 102 106 73
-53.514 -30.306 1.642 104 108 73
-53.527 -30.353 1.644 81 84 63
-53.539 -30.400 1.645 65 68 49
-53.547 -30.447 1.645 110 115 85
-53.555 -30.494 1.645 131 138 97
-53.572 -30.540 1.647 174 178 151
-53.806 -30.759 1.677 107 109 106
-53.521 -30.915 1.619 188 190 177
-53.462 -30.995 1.603 168 166 153
-53.447 -31.060 1.596 151 152 147
-53.438 -31.125 1.590 121 122 124
-53.422 -31.194 1.582 96 96 88
-53.389 -31.276 1.570 180 178 166
-53.372 -31.353 1.560 151 141 129
-53.381 -31.416 1.556 163 149 136
-49.750 -33.787 0.767 197 193 184
-51.675 -32.700 1.168 211 203 190
-53.264 -31.718 1.508 172 159 143
-53.301 -31.774 1.507 168 156 140
-53.347 -31.822 1.509 164 156 145
-53.408 -31.858 1.513 39 38 34
-53.433 -31.922 1.509 51 50 48
-53.436 -32.009 1.499 39 34 28
-53.390 -32.146 1.476 186 178 167
-53.407 -32.229 1.468 184 175 166
-53.436 -32.303 1.462 164 156 137
-53.491 -32.351 1.462 99 88 82
-53.549 -32.394 1.463 74 68 70
-53.588 -32.461 1.459 71 69 70
-53.601 -32.563 1.446 69 64 61
-53.564 -32.738 1.416 187 179 168
-53.607 -32.814 1.410 148 142 126
-53.660 -32.878 1.406 161 154 135
-53.742 -32.898 1.411 159 155 144
-53.833 -32.901 1.419 69 67 70
-53.891 -32.957 1.415 59 53 53
-53.947 -33.020 1.410 47 35 37
-53.983 -33.126 1.396 99 88 86
-53.999 -33.281 1.372 177 168 159
-54.051 -33.375 1.360 186 177 168
-54.106 -33.467 1.349 117 112 106
-54.163 -33.563 1.337 89 88 84
-54.207 -33.706 1.315 29 29 29
-54.259 -33.843 1.294 102 107 103
-54.315 -33.985 1.273 130 141 137
-54.369 -34.157 1.246 60 74 74
-54.453 -34.243 1.234 70 85 88
-54.543 -34.313 1.226 65 80 87
-54.638 -34.371 1.219 45 75 75
-54.733 -34.436 1.211 19 40 43
-54.831 -34.502 1.201 71 75 84
-54.931 -34.576 1.191 205 208 217
-55.034 -34.636 1.182 126 129 138
-55.141 -34.693 1.173 144 147 156
-55.250 -34.749 1.164 212 215 224
-55.361 -34.801 1.156 53 56 65
-55.475 -34.865 1.144 118 119 124
-55.592 -34.924 1.133 215 216 220
-55.717 -35.080 1.104 225 228 219
-55.892 -35.816 0.968 72 79 45
-56.027 -35.769 0.975 156 166 132
-56.096 -35.194 1.077 29 37 22
-56.211 -35.122 1.088 58 63 67
-56.340 -35.143 1.080 73 77 86
-56.471 -35.167 1.071 67 74 80
-56.603 -35.183 1.064 63 69 81
-56.735 -35.191 1.057 61 65 76
-56.871 -35.205 1.048 68 75 68
-57.190 -35.813 0.925 131 141 106
-57.355 -35.852 0.909 93 104 64
-57.501 -35.823 0.906 44 56 20
-57.650 -35.799 0.901 19 33 0
-57.712 -35.561 0.937 97 106 87
-57.751 -35.296 0.978 67 73 71
-57.917 -35.324 0.961 98 103 106
-58.153 -35.481 0.916 54 62 47
-58.337 -35.516 0.895 114 133 103
-58.476 -35.459 0.892 85 74 44
-58.600 -35.374 0.894 58 63 40
-58.744 -35.324 0.888 28 50 12
-58.889 -35.270 0.882 104 107 78
-58.982 -35.140 0.892 139 159 124
-58.913 -34.797 0.950 149 147 135
-58.971 -34.641 0.966 52 44 42
-59.088 -34.564 0.964 41 37 28
-59.237 -34.522 0.952 158 153 147
-59.358 -34.446 0.948 26 25 21
-59.447 -34.333 0.952 10 12 11
-59.558 -34.244 0.949 28 28 28
-59.671 -34.156 0.946 51 51 51
-59.783 -34.065 0.942 36 37 41
-59.891 -33.971 0.939 14 18 21
-59.997 -33.872 0.936 15 16 20
-60.102 -33.772 0.932 13 12 17
-60.205 -33.669 0.929 13 12 17
-60.307 -33.564 0.925 13 12 17
-60.412 -33.460 0.920 13 12 10
-60.662 -33.446 0.883 133 129 126
-60.695 -33.290 0.893 12 9 4
-60.743 -33.145 0.898 24 19 13
-60.860 -33.040 0.889 110 103 93
-61.207 -33.046 0.832 150 143 133
-61.599 -33.057 0.767 133 127 113
-61.767 -32.950 0.748 143 137 123
-61.880 -32.814 0.739 143 137 121
-61.990 -32.674 0.729 141 134 116
-62.092 -32.529 0.721 140 131 114
-62.195 -32.381 0.712 140 132 113
-62.295 -32.230 0.703 137 129 110
-62.383 -32.073 0.696 136 124 108
-62.467 -31.913 0.688 135 122 106
-62.549 -31.750 0.681 139 123 108
-62.624 -31.583 0.674 137 121 105
-62.691 -31.413 0.667 135 122 106
-62.746 -31.240 0.663 129 120 113
-62.751 -31.059 0.666 28 24 23
-62.710 -30.874 0.677 32 31 29
-62.731 -30.696 0.676 32 33 28
-62.795 -30.521 0.667 31 34 27
-63.052 -30.347 0.621 92 87 81
-63.095 -30.161 0.613 75 67 64
-63.130 -29.973 0.607 56 51 47
-63.139 -29.785 0.604 72 69 64
-63.150 -29.595 0.600 100 97 92
-63.162 -29.404 0.595 109 109 101
-63.167 -29.213 0.590 112 112 104
-63.160 -29.021 0.586 104 104 96
-63.148 -28.830 0.583 123 123 115
-63.127 -28.639 0.580 120 114 114
-63.103 -28.448 0.578 84 81 64
-63.074 -28.258 0.575 117 114 99
-63.038 -28.068 0.572 82 77 74
-63.001 -27.878 0.569 120 115 111
-62.957 -27.689 0.566 77 78 72
-62.988 -27.473 0.548 39 45 35
-65.164 -26.424 0.110 58 61 50
-65.221 -26.124 0.081 20 26 12
-65.164 -25.867 0.072 32 41 24
-65.097 -25.610 0.063 44 52 31
-64.988 -25.373 0.062 56 61 38
-64.868 -25.141 0.062 42 47 25
-64.299 -25.162 0.155 55 55 43
-62.374 -26.026 0.537 156 156 154
-62.281 -25.852 0.534 119 119 117
-62.211 -25.660 0.526 38 44 34
-62.201 -25.425 0.503 92 98 86
-62.039 -25.293 0.513 129 132 123
-62.046 -25.033 0.483 66 67 59
-61.840 -24.937 0.502 64 63 58
-61.725 -24.770 0.498 130 129 124
-61.611 -24.600 0.493 85 84 79
-61.498 -24.427 0.487 40 39 34
-61.383 -24.254 0.480 111 110 105
-61.259 -24.086 0.474 123 122 118
-61.127 -23.925 0.469 41 42 36
-62.249 -22.309 0.113 156 160 145
-62.730 -21.321 -0.081 98 101 72
-62.506 -21.152 -0.079 100 100 74
-61.520 -22.010 0.153 140 135 115
-62.028 -20.857 -0.071 119 111 88
-60.410 -22.776 0.384 137 129 110
-60.246 -22.627 0.377 136 128 107
-60.077 -22.483 0.371 140 132 111
-59.890 -22.368 0.370 119 110 95
-60.956 -19.907 -0.116 37 28 13
-60.718 -19.745 -0.122 76 67 52
-59.290 -22.095 0.376 125 117 98
-59.082 -22.025 0.381 135 124 104
-58.882 -21.936 0.380 134 123 105
-58.686 -21.837 0.377 134 121 104
-58.486 -21.748 0.374 129 120 105
-58.282 -21.664 0.372 128 125 118
-58.072 -21.600 0.372 82 82 82
-57.865 -21.524 0.369 87 82 86
-57.661 -21.436 0.363 30 30 32
-57.452 -21.358 0.358 23 24 26
-57.241 -21.284 0.353 26 30 33
-57.028 -21.214 0.348 24 25 29
-56.812 -21.146 0.342 57 40 46
-56.594 -21.086 0.336 83 58 62
-56.375 -21.030 0.330 35 18 24
-56.152 -20.981 0.325 49 43 47
-55.928 -20.933 0.319 78 82 85
-55.703 -20.887 0.312 8 16 18
-54.241 -28.497 1.588 132 136 121
-54.154 -28.468 1.573 104 109 79
-54.094 -28.479 1.567 109 113 78
-54.045 -28.503 1.564 97 101 74
-54.007 -28.541 1.565 116 120 97
-53.967 -28.577 1.565 91 95 68
-53.928 -28.614 1.565 103 107 80
-53.895 -28.657 1.566 76 79 60
-53.872 -28.708 1.570 56 58 47
-53.843 -28.753 1.571 39 40 35
-53.797 -28.784 1.568 41 43 38
-53.754 -28.818 1.566 31 33 28
-53.725 -28.863 1.567 70 72 67
-53.702 -28.913 1.569 59 62 55
-53.682 -28.963 1.571 37 38 33
-53.657 -29.010 1.572 67 64 57
-53.626 -29.053 1.571 92 89 74
-53.600 -29.099 1.571 76 77 61
-53.573 -29.145 1.571 108 112 85
-53.551 -29.193 1.571 114 119 87
-53.535 -29.243 1.573 115 120 88
-53.521 -29.295 1.575 87 92 60
-53.507 -29.346 1.576 99 102 71
-53.497 -29.398 1.578 115 118 91
-53.489 -29.451 1.580 90 92 68
-53.477 -29.501 1.581 77 80 53
-53.470 -29.553 1.583 60 62 38
-53.467 -29.605 1.586 77 79 57
-53.463 -29.657 1.587 113 115 94
-53.469 -29.711 1.591 111 112 94
-53.480 -29.764 1.595 65 67 45
-53.486 -29.816 1.598 58 60 39
-53.495 -29.867 1.602 100 101 93
-53.506 -29.918 1.605 55 59 60
-53.506 -29.967 1.606 32 33 37
-53.497 -30.015 1.606 54 53 58
-53.483 -30.063 1.603 38 38 38
-53.465 -30.112 1.600 69 71 60
-53.457 -30.161 1.599 125 129 102
-53.467 -30.210 1.600 111 115 88
-53.483 -30.259 1.603 100 104 77
-53.497 -30.307 1.605 142 148 114
-53.517 -30.354 1.609 165 168 137
-53.533 -30.401 1.611 131 134 107
-53.538 -30.449 1.610 89 93 66
-53.532 -30.498 1.608 124 131 98
-53.536 -30.547 1.607 117 124 93
-53.558 -30.592 1.609 140 145 125
-53.590 -30.633 1.613 114 116 102
-53.662 -30.663 1.626 124 126 105
-53.830 -30.750 1.652 184 187 180
-53.512 -30.918 1.582 170 168 156
-53.450 -31.000 1.564 170 162 149
-53.439 -31.064 1.557 131 121 109
-53.423 -31.132 1.549 165 153 141
-53.410 -31.201 1.540 158 150 137
-53.383 -31.279 1.528 154 150 138
-53.370 -31.354 1.519 147 139 126
-53.381 -31.416 1.514 64 54 42
-49.746 -33.789 0.651 198 195 188
-51.070 -33.105 0.946 213 207 195
-53.263 -31.719 1.462 170 161 144
-53.306 -31.770 1.463 164 153 135
-53.354 -31.817 1.465 156 149 133
-53.412 -31.855 1.469 41 40 38
-53.437 -31.919 1.465 76 75 73
-53.436 -32.010 1.452 71 68 61
-53.392 -32.144 1.428 183 176 166
-53.414 -32.222 1.420 184 178 166
-53.445 -32.294 1.414 165 156 139
-53.494 -32.347 1.413 117 108 93
-53.548 -32.396 1.413 77 77 69
-53.588 -32.460 1.408 86 87 82
-53.601 -32.562 1.394 61 58 53
-53.567 -32.734 1.363 187 178 171
-53.609 -32.811 1.355 160 150 140
-53.659 -32.879 1.350 163 156 138
-53.733 -32.912 1.352 42 38 27
-53.810 -32.939 1.356 53 47 49
-53.859 -33.014 1.348 106 94 96
-53.907 -33.094 1.338 91 71 70
-53.936 -33.218 1.319 89 74 69
-53.943 -33.401 1.287 75 71 62
-53.980 -33.534 1.266 26 26 18
-54.040 -33.625 1.254 126 118 115
-54.110 -33.701 1.245 122 127 121
-54.180 -33.781 1.235 101 121 112
-54.254 -33.856 1.226 136 145 142
-54.322 -33.962 1.210 87 87 89
-54.371 -34.151 1.177 61 88 83
-54.455 -34.235 1.165 85 135 124
-54.545 -34.305 1.155 129 164 160
-54.639 -34.366 1.147 89 111 109
-54.734 -34.431 1.138 0 4 7
-54.831 -34.501 1.127 73 77 86
-54.932 -34.565 1.117 217 221 230
-55.035 -34.625 1.108 73 77 86
-55.142 -34.681 1.098 7 12 18
-55.250 -34.735 1.089 192 197 203
-55.362 -34.784 1.080 53 58 64
-55.475 -34.853 1.067 71 69 80
-55.592 -34.927 1.052 65 67 82
-55.719 -35.127 1.011 48 55 61
-55.889 -35.769 0.881 41 49 28
-56.033 -35.829 0.867 155 169 136
-56.156 -35.684 0.893 45 58 30
-56.212 -35.131 1.001 95 102 84
-56.336 -35.123 0.998 74 76 73
-56.466 -35.143 0.990 114 114 112
-56.598 -35.161 0.981 58 68 59
-56.739 -35.207 0.965 129 130 122
-56.932 -35.426 0.913 109 94 89
-57.178 -35.776 0.833 116 129 112
-57.335 -35.791 0.821 29 38 21
-57.484 -35.777 0.814 132 144 124
-57.626 -35.738 0.811 2 14 0
-57.763 -35.685 0.811 69 75 61
-57.888 -35.605 0.816 59 66 58
-58.027 -35.556 0.813 175 195 167
-58.182 -35.539 0.802 44 71 30
-58.338 -35.517 0.792 169 189 154
-58.479 -35.464 0.788 80 64 28
-58.606 -35.385 0.789 4 8 0
-58.739 -35.316 0.786 9 23 0
-58.860 -35.227 0.788 128 136 112
-58.809 -34.894 0.848 10 13 0
-58.834 -34.690 0.878 10 13 2
-58.938 -34.599 0.880 28 29 23
-59.060 -34.529 0.876 139 138 136
-59.214 -34.496 0.861 33 33 33
-59.294 -34.375 0.869 47 48 50
-59.407 -34.291 0.866 58 61 68
-59.524 -34.210 0.861 39 43 46
-59.641 -34.127 0.856 66 70 73
-59.752 -34.038 0.852 62 66 67
-59.857 -33.941 0.849 26 30 31
-59.961 -33.843 0.846 23 25 24
-60.071 -33.748 0.840 23 23 23
-60.184 -33.653 0.834 3 3 1
-60.342 -33.589 0.816 76 76 74
-60.745 -33.682 0.739 141 138 131
-61.025 -33.675 0.693 137 131 119
-61.145 -33.560 0.685 141 132 117
-61.281 -33.450 0.673 140 130 118
-61.392 -33.324 0.665 140 130 118
-61.526 -33.207 0.652 143 131 117
-61.655 -33.084 0.640 144 132 118
-61.767 -32.950 0.631 143 131 115
-61.870 -32.810 0.623 141 128 112
-61.970 -32.667 0.615 144 131 115
-62.070 -32.521 0.607 144 132 118
-62.169 -32.373 0.598 136 129 113
-62.266 -32.221 0.588 137 128 111
-62.358 -32.066 0.580 136 127 110
-62.442 -31.906 0.571 139 127 111
-62.523 -31.744 0.563 136 122 109
-62.599 -31.578 0.555 143 127 114
-62.666 -31.409 0.548 139 125 112
-62.721 -31.236 0.543 134 126 115
-62.746 -31.058 0.543 44 40 37
-62.719 -30.875 0.552 36 35 33
-62.743 -30.697 0.550 34 35 30
-62.780 -30.520 0.545 42 43 38
-63.001 -30.346 0.503 99 98 93
-63.059 -30.161 0.491 81 78 71
-63.090 -29.974 0.485 64 61 54
-63.116 -29.786 0.478 61 58 51
-63.139 -29.596 0.471 103 100 93
-63.143 -29.406 0.467 108 105 100
-63.148 -29.215 0.462 115 110 106
-63.142 -29.024 0.458 59 54 50
-63.124 -28.834 0.456 37 32 28
-63.097 -28.645 0.454 53 53 45
-63.066 -28.457 0.452 82 78 66
-63.039 -28.266 0.449 120 114 102
-63.008 -28.077 0.445 78 75 68
-62.977 -27.886 0.441 62 62 54
-62.946 -27.693 0.435 51 55 41
-63.088 -27.437 0.392 69 78 59
-65.187 -26.415 -0.070 28 40 20
-65.191 -26.137 -0.092 44 56 34
-65.118 -25.887 -0.098 22 31 14
-65.040 -25.638 -0.105 50 56 42
-64.648 -25.544 -0.043 79 82 65
-64.671 -25.246 -0.074 66 73 55
-62.696 -26.071 0.349 70 73 62
-62.362 -26.033 0.403 145 148 141
-62.264 -25.862 0.402 142 145 138
-62.191 -25.674 0.393 104 103 98
-62.096 -25.498 0.389 47 44 39
-62.007 -25.317 0.382 104 103 98
-61.914 -25.136 0.375 129 130 124
-61.815 -24.958 0.369 55 54 49
-61.712 -24.781 0.362 54 53 48
-61.604 -24.606 0.355 131 130 125
-61.493 -24.431 0.347 97 96 91
-61.375 -24.261 0.340 38 35 28
-61.249 -24.096 0.334 77 74 69
-61.119 -23.934 0.328 138 138 130
-62.754 -21.723 -0.217 81 85 60
-62.651 -21.418 -0.250 46 52 16
-62.151 -21.606 -0.159 97 95 72
-60.675 -23.150 0.264 139 127 113
-60.533 -22.979 0.253 140 127 108
-60.385 -22.813 0.242 140 127 108
-60.230 -22.653 0.232 140 127 110
-60.066 -22.503 0.224 135 124 106
-59.877 -22.390 0.224 130 121 104
-60.660 -20.460 -0.188 76 65 47
-60.681 -19.818 -0.303 165 142 124
-59.946 -20.708 -0.080 135 129 105
-59.068 -22.056 0.236 139 132 113
-58.872 -21.961 0.235 136 120 104
-58.675 -21.865 0.231 133 120 103
-58.476 -21.775 0.228 131 119 105
-58.273 -21.692 0.226 125 122 117
-58.062 -21.633 0.227 58 64 64
-57.855 -21.563 0.225 21 29 31
-57.648 -21.485 0.221 19 30 32
-57.441 -21.406 0.215 33 47 50
-57.232 -21.326 0.208 20 21 25
-57.021 -21.252 0.201 12 36 38
-56.807 -21.180 0.194 48 21 30
-56.591 -21.118 0.187 137 87 99
-56.372 -21.058 0.181 98 77 76
-56.150 -21.009 0.175 53 39 38
-55.927 -20.966 0.169 15 24 23
-55.702 -20.939 0.165 16 20 21
-54.206 -28.451 1.540 80 82 68
-54.139 -28.450 1.531 117 120 99
-54.084 -28.466 1.526 95 98 77
-54.041 -28.499 1.526 66 69 52
-54.001 -28.535 1.526 60 63 46
-53.953 -28.562 1.523 93 97 74
-53.909 -28.595 1.522 83 87 64
-53.876 -28.639 1.523 66 70 47
-53.847 -28.686 1.526 98 101 82
-53.826 -28.739 1.530 81 84 67
-53.803 -28.789 1.533 68 70 67
-53.775 -28.835 1.534 26 27 29
-53.741 -28.875 1.534 52 54 53
-53.708 -28.917 1.533 74 76 73
-53.676 -28.959 1.533 59 60 52
-53.647 -29.004 1.533 90 88 76
-53.613 -29.045 1.531 103 100 83
-53.582 -29.089 1.530 112 113 97
-53.557 -29.136 1.530 75 78 61
-53.537 -29.186 1.531 77 80 61
-53.521 -29.237 1.533 104 107 86
-53.506 -29.288 1.535 115 118 97
-53.488 -29.338 1.536 120 123 94
-53.474 -29.389 1.537 105 108 77
-53.468 -29.443 1.539 78 81 52
-53.461 -29.496 1.542 76 79 52
-53.457 -29.549 1.545 86 89 62
-53.456 -29.602 1.548 49 52 25
-53.456 -29.656 1.550 104 106 82
-53.464 -29.710 1.555 68 70 48
-53.467 -29.762 1.558 122 124 100
-53.471 -29.814 1.561 76 77 59
-53.489 -29.867 1.566 63 65 54
-53.515 -29.919 1.574 30 32 29
-53.520 -29.969 1.576 28 29 33
-53.512 -30.016 1.575 27 28 33
-53.501 -30.064 1.573 30 31 36
-53.478 -30.112 1.569 45 47 44
-53.452 -30.161 1.563 84 87 66
-53.456 -30.211 1.564 79 83 60
-53.465 -30.260 1.565 75 79 54
-53.471 -30.309 1.566 115 121 87
-53.479 -30.358 1.567 147 151 114
-53.490 -30.406 1.568 127 130 99
-53.502 -30.454 1.569 129 133 110
-53.510 -30.502 1.569 114 119 97
-53.522 -30.550 1.570 47 54 36
-53.551 -30.593 1.574 68 74 62
-53.585 -30.635 1.579 77 80 73
-53.629 -30.672 1.586 74 77 60
-53.668 -30.709 1.592 100 101 85
-53.732 -30.737 1.603 200 202 191
-53.694 -30.798 1.591 51 54 47
-53.507 -30.921 1.544 165 161 152
-53.439 -31.005 1.524 175 166 151
-53.412 -31.076 1.513 157 145 131
-53.410 -31.138 1.507 153 141 129
-53.405 -31.203 1.500 71 63 52
-53.377 -31.283 1.486 176 172 160
-53.369 -31.354 1.477 142 134 121
-53.388 -31.412 1.474 118 110 99
-49.739 -33.794 0.534 201 198 193
-50.545 -33.456 0.719 213 209 198
-53.257 -31.724 1.414 169 160 143
-53.306 -31.770 1.417 163 152 134
-53.356 -31.815 1.419 152 145 129
-53.414 -31.853 1.424 12 12 12
-53.439 -31.917 1.419 69 69 69
-53.437 -32.009 1.406 68 65 60
-53.393 -32.143 1.379 188 181 171
-53.419 -32.217 1.372 181 173 160
-53.448 -32.290 1.365 163 154 139
-53.484 -32.358 1.360 117 107 95
-53.531 -32.415 1.357 149 146 137
-53.576 -32.475 1.354 106 105 101
-53.596 -32.569 1.340 65 62 57
-53.578 -32.719 1.312 183 177 165
-53.610 -32.809 1.300 166 159 140
-53.653 -32.888 1.292 149 146 129
-53.715 -32.940 1.290 106 106 96
-53.760 -33.023 1.279 116 115 110
-53.788 -33.139 1.261 135 130 126
-53.831 -33.237 1.247 27 20 14
-53.864 -33.361 1.226 102 99 94
-53.922 -33.445 1.216 125 127 122
-53.984 -33.526 1.205 132 132 130
-54.045 -33.615 1.193 159 170 162
-54.111 -33.698 1.181 29 49 38
-54.183 -33.773 1.172 73 94 85
-54.260 -33.840 1.163 94 117 109
-54.328 -33.944 1.146 133 133 135
-54.373 -34.143 1.108 67 77 78
-54.455 -34.233 1.093 14 40 37
-54.545 -34.301 1.084 54 75 76
-54.639 -34.364 1.075 39 59 58
-54.735 -34.427 1.065 54 69 72
-54.833 -34.491 1.055 75 79 88
-54.934 -34.551 1.045 224 228 237
-55.037 -34.611 1.034 35 39 48
-55.143 -34.667 1.024 10 15 21
-55.251 -34.719 1.014 67 72 78
-55.362 -34.773 1.004 101 106 112
-55.475 -34.849 0.988 33 13 4
-55.603 -35.361 0.877 101 86 67
-55.740 -35.556 0.833 83 86 65
-55.884 -35.708 0.799 47 62 43
-56.029 -35.789 0.779 34 48 33
-56.174 -35.828 0.767 47 59 35
-56.315 -35.820 0.764 29 38 7
-56.441 -35.728 0.780 108 114 88
-56.586 -35.744 0.771 76 99 47
-56.740 -35.795 0.753 87 80 36
-56.884 -35.788 0.747 110 137 94
-57.025 -35.762 0.745 109 115 87
-57.173 -35.757 0.737 46 58 34
-57.325 -35.760 0.727 18 28 1
-57.475 -35.750 0.718 187 197 170
-57.605 -35.682 0.722 58 66 51
-57.737 -35.621 0.724 57 68 52
-57.877 -35.580 0.720 69 85 72
-58.032 -35.568 0.708 71 76 53
-58.202 -35.578 0.690 94 72 31
-58.348 -35.536 0.684 159 139 80
-58.479 -35.464 0.684 145 159 124
-58.604 -35.381 0.686 163 171 132
-58.739 -35.315 0.682 112 117 77
-58.864 -35.233 0.682 94 111 69
-58.982 -35.141 0.685 99 113 64
-58.978 -34.884 0.730 45 52 19
-58.929 -34.587 0.787 119 119 117
-59.050 -34.517 0.783 76 71 77
-59.168 -34.443 0.779 66 64 67
-59.282 -34.362 0.776 67 67 69
-59.405 -34.289 0.769 71 72 74
-59.528 -34.214 0.762 85 85 83
-59.645 -34.131 0.756 68 67 65
-59.773 -34.057 0.747 96 95 93
-60.063 -34.119 0.691 141 140 138
-60.317 -34.135 0.647 144 140 137
-60.486 -34.072 0.627 136 131 127
-60.654 -34.002 0.607 141 136 132
-60.784 -33.900 0.598 148 143 139
-60.908 -33.791 0.589 141 138 131
-61.032 -33.680 0.579 137 129 118
-61.148 -33.561 0.572 139 127 111
-61.266 -33.442 0.563 141 131 119
-61.385 -33.320 0.553 142 130 118
-61.509 -33.198 0.541 143 131 117
-61.631 -33.073 0.529 143 131 117
-61.742 -32.939 0.520 142 130 116
-61.846 -32.800 0.511 143 130 114
-61.946 -32.657 0.502 139 126 110
-62.046 -32.512 0.493 140 128 112
-62.143 -32.364 0.483 141 132 115
-62.239 -32.213 0.473 139 130 113
-62.332 -32.059 0.463 139 130 113
-62.418 -31.900 0.454 131 119 103
-62.498 -31.738 0.445 131 118 102
-62.574 -31.573 0.437 140 124 111
-62.642 -31.405 0.429 136 124 108
-62.702 -31.233 0.422 132 124 111
-62.738 -31.057 0.420 70 67 60
-62.727 -30.875 0.426 41 40 36
-62.762 -30.699 0.422 38 37 32
-62.793 -30.521 0.418 38 37 32
-62.958 -30.345 0.383 99 98 93
-63.021 -30.161 0.370 80 79 74
-63.045 -29.975 0.365 44 43 38
-63.073 -29.788 0.357 31 30 25
-63.071 -29.601 0.355 55 54 49
-63.076 -29.413 0.350 61 56 50
-63.080 -29.223 0.345 82 75 67
-63.072 -29.034 0.341 97 90 82
-63.057 -28.846 0.338 80 73 65
-63.040 -28.656 0.334 90 87 78
-63.020 -28.467 0.330 84 80 68
-62.995 -28.278 0.326 125 119 105
-62.967 -28.088 0.321 98 95 86
-62.946 -27.895 0.314 33 33 21
-63.005 -27.674 0.287 64 67 50
-64.717 -26.855 -0.120 85 93 70
-65.210 -26.406 -0.253 25 34 17
-65.166 -26.147 -0.265 33 42 25
-65.077 -25.905 -0.268 37 44 28
-64.964 -25.673 -0.267 61 65 50
-64.804 -25.466 -0.256 27 32 10
-64.686 -25.238 -0.256 44 49 27
-63.516 -25.606 0.004 119 123 108
-62.331 -26.052 0.274 146 148 143
-62.246 -25.874 0.269 139 141 138
-62.169 -25.689 0.261 117 118 112
-62.077 -25.512 0.256 109 110 104
-61.988 -25.331 0.249 37 38 32
-61.895 -25.151 0.241 84 85 79
-61.796 -24.974 0.234 131 130 125
-61.696 -24.795 0.226 63 62 57
-61.588 -24.621 0.218 54 53 48
-61.477 -24.447 0.210 119 118 113
-61.361 -24.276 0.202 119 116 109
-61.232 -24.115 0.197 56 52 49
-61.104 -23.950 0.190 63 63 55
-62.292 -22.258 -0.254 113 117 92
-62.556 -21.533 -0.411 66 73 32
-62.350 -21.352 -0.414 140 139 111
-60.669 -23.159 0.117 140 127 111
-60.523 -22.994 0.107 140 127 108
-60.366 -22.842 0.099 140 127 108
-60.213 -22.679 0.087 140 127 110
-60.048 -22.532 0.079 138 127 109
-59.871 -22.402 0.074 131 123 104
-59.783 -22.102 0.026 116 115 94
-60.651 -19.878 -0.487 120 98 77
-59.819 -20.977 -0.194 134 113 92
-59.056 -22.084 0.092 138 130 111
-58.860 -21.990 0.090 134 122 106
-58.663 -21.897 0.087 133 120 103
-58.465 -21.805 0.083 128 116 102
-58.263 -21.721 0.080 118 115 108
-58.053 -21.663 0.082 55 61 61
-57.845 -21.596 0.081 29 37 39
-57.640 -21.517 0.075 26 36 38
-57.434 -21.437 0.069 27 38 40
-57.227 -21.356 0.061 22 37 40
-57.016 -21.281 0.053 26 32 44
-56.803 -21.208 0.045 27 26 24
-56.587 -21.143 0.037 78 65 59
-56.369 -21.082 0.030 49 34 29
-56.148 -21.033 0.023 69 49 50
-55.926 -20.993 0.017 24 22 25
-55.701 -20.953 0.011 10 24 24
-54.785 -28.942 1.673 149 150 134
-54.646 -28.778 1.624 151 154 137
-54.895 -29.245 1.747 147 151 134
-54.576 -28.816 1.623 151 154 137
-54.262 -28.439 1.509 110 113 96
-54.193 -28.433 1.498 150 153 136
-54.127 -28.434 1.489 84 86 72
-54.073 -28.452 1.485 76 79 58
-54.028 -28.483 1.483 42 46 21
-53.977 -28.508 1.480 95 100 68
-53.921 -28.529 1.475 114 120 84
-53.880 -28.566 1.474 77 81 54
-53.847 -28.611 1.476 106 110 83
-53.813 -28.655 1.477 51 55 28
-53.793 -28.710 1.482 87 92 62
-53.783 -28.772 1.490 116 121 99
-53.763 -28.825 1.494 46 51 31
-53.731 -28.867 1.494 93 98 76
-53.691 -28.905 1.491 84 89 67
-53.658 -28.947 1.490 99 104 84
-53.633 -28.995 1.492 47 48 34
-53.603 -29.039 1.491 79 77 65
-53.578 -29.087 1.492 40 42 31
-53.555 -29.135 1.492 63 65 52
-53.533 -29.184 1.493 71 74 57
-53.510 -29.232 1.493 89 93 68
-53.488 -29.280 1.493 108 113 81
-53.468 -29.330 1.493 108 114 80
-53.452 -29.381 1.494 119 124 92
-53.445 -29.435 1.497 97 102 72
-53.439 -29.489 1.500 111 116 86
-53.433 -29.542 1.502 66 71 41
-53.427 -29.594 1.504 72 77 47
-53.425 -29.648 1.507 102 107 77
-53.434 -29.703 1.512 96 101 71
-53.437 -29.756 1.515 117 121 94
-53.440 -29.808 1.518 107 111 86
-53.454 -29.861 1.524 113 116 95
-53.493 -29.917 1.534 72 75 56
-53.525 -29.969 1.543 26 29 20
-53.533 -30.018 1.546 12 14 13
-53.525 -30.065 1.545 35 36 41
-53.508 -30.113 1.541 28 29 33
-53.475 -30.161 1.534 123 125 114
-53.469 -30.210 1.532 108 111 94
-53.470 -30.260 1.532 74 77 56
-53.467 -30.309 1.530 77 81 56
-53.465 -30.359 1.529 116 121 89
-53.477 -30.408 1.531 70 74 49
-53.490 -30.456 1.532 55 59 44
-53.504 -30.503 1.533 69 75 63
-53.517 -30.551 1.534 124 129 122
-53.537 -30.596 1.537 30 35 31
-53.561 -30.641 1.540 76 81 77
-53.608 -30.678 1.548 65 71 61
-53.683 -30.705 1.563 164 165 157
-53.703 -30.747 1.565 179 180 174
-53.671 -30.807 1.553 68 71 64
-53.495 -30.925 1.505 171 167 158
-53.425 -31.010 1.483 164 155 138
-53.403 -31.080 1.471 71 63 50
-53.425 -31.131 1.471 52 45 37
-53.425 -31.193 1.465 38 34 25
-53.355 -31.294 1.439 177 173 161
-53.367 -31.356 1.435 140 132 119
-53.394 -31.408 1.434 130 122 111
-49.736 -33.795 0.416 196 193 188
-50.249 -33.653 0.535 214 210 199
-53.251 -31.727 1.366 167 158 141
-53.305 -31.771 1.370 171 160 142
-53.359 -31.813 1.374 153 146 130
-53.418 -31.850 1.379 13 13 13
-53.447 -31.911 1.375 64 64 64
-53.443 -32.003 1.361 44 41 36
-53.400 -32.137 1.332 180 173 163
-53.424 -32.212 1.324 187 175 163
-53.448 -32.291 1.314 164 158 146
-53.449 -32.397 1.296 100 100 90
-53.510 -32.440 1.298 134 130 127
-53.563 -32.491 1.297 54 52 53
-53.590 -32.577 1.286 59 58 54
-53.589 -32.704 1.262 173 174 160
-53.605 -32.816 1.243 77 77 53
-53.639 -32.909 1.229 140 142 121
-53.668 -33.015 1.212 47 51 34
-53.680 -33.157 1.186 90 99 80
-53.738 -33.227 1.178 141 145 131
-53.802 -33.292 1.172 129 134 130
-53.864 -33.362 1.165 144 153 150
-53.924 -33.441 1.154 103 114 110
-53.983 -33.528 1.141 174 176 175
-54.045 -33.614 1.129 100 102 99
-54.113 -33.693 1.117 82 77 74
-54.186 -33.765 1.108 96 86 87
-54.259 -33.842 1.096 98 104 102
-54.331 -33.932 1.081 112 118 118
-54.375 -34.138 1.038 59 67 69
-54.457 -34.225 1.023 56 76 75
-54.547 -34.295 1.012 85 115 113
-54.640 -34.358 1.002 145 174 170
-54.737 -34.417 0.993 0 17 18
-54.835 -34.480 0.982 68 75 83
-54.935 -34.538 0.972 69 73 82
-55.038 -34.596 0.961 60 64 73
-55.144 -34.650 0.950 41 46 52
-55.252 -34.704 0.939 75 80 86
-55.362 -34.759 0.928 134 139 145
-55.475 -34.814 0.915 89 78 86
-55.601 -35.269 0.809 69 52 42
-55.746 -35.682 0.711 98 88 61
-55.885 -35.719 0.700 109 106 91
-56.025 -35.741 0.693 24 28 27
-56.168 -35.776 0.681 54 63 46
-56.314 -35.819 0.666 125 135 100
-56.458 -35.828 0.659 54 65 23
-56.602 -35.824 0.654 94 110 71
-56.744 -35.810 0.650 107 122 89
-56.886 -35.796 0.646 57 67 33
-57.032 -35.787 0.639 173 132 100
-57.178 -35.776 0.632 83 87 50
-57.325 -35.762 0.625 188 198 161
-57.470 -35.737 0.619 20 30 0
-57.593 -35.652 0.628 81 88 72
-57.719 -35.577 0.633 86 87 82
-57.854 -35.527 0.631 30 41 33
-57.999 -35.497 0.624 34 40 40
-58.184 -35.543 0.595 68 46 23
-58.347 -35.535 0.579 66 55 0
-58.463 -35.436 0.587 19 13 13
-58.589 -35.357 0.588 69 87 61
-58.726 -35.295 0.583 53 63 28
-58.825 -35.174 0.594 29 31 26
-58.952 -35.098 0.592 9 17 0
-59.134 -35.094 0.568 188 194 160
-58.933 -34.593 0.689 42 39 32
-59.043 -34.508 0.689 63 57 61
-59.176 -34.451 0.679 92 86 86
-59.337 -34.422 0.659 150 146 143
-59.557 -34.449 0.620 144 144 136
-59.775 -34.461 0.582 146 142 133
-59.947 -34.418 0.560 146 139 131
-60.084 -34.339 0.550 147 140 132
-60.220 -34.254 0.539 151 144 136
-60.359 -34.169 0.527 143 134 127
-60.497 -34.080 0.515 144 135 128
-60.634 -33.987 0.502 145 136 129
-60.772 -33.892 0.489 145 136 129
-60.904 -33.789 0.477 140 136 127
-61.026 -33.677 0.468 137 129 118
-61.147 -33.561 0.458 138 126 110
-61.265 -33.441 0.449 138 128 116
-61.381 -33.318 0.439 140 128 116
-61.500 -33.194 0.427 143 131 117
-61.614 -33.065 0.416 145 133 119
-61.725 -32.932 0.406 141 129 115
-61.828 -32.793 0.397 140 128 112
-61.929 -32.651 0.387 143 131 115
-62.027 -32.505 0.377 138 126 110
-62.119 -32.356 0.368 143 131 115
-62.212 -32.205 0.359 137 128 111
-62.303 -32.051 0.348 128 119 102
-62.388 -31.893 0.338 135 123 107
-62.471 -31.732 0.328 134 121 105
-62.552 -31.569 0.318 138 124 111
-62.621 -31.401 0.309 136 123 107
-62.680 -31.230 0.302 130 121 106
-62.728 -31.056 0.296 129 120 111
-62.739 -30.877 0.298 113 109 100
-62.776 -30.700 0.293 94 90 79
-62.811 -30.522 0.287 62 58 49
-62.881 -30.343 0.273 54 49 45
-62.928 -30.161 0.262 63 62 58
-62.959 -29.977 0.255 57 56 51
-62.973 -29.793 0.250 54 54 46
-62.983 -29.607 0.245 60 60 50
-62.994 -29.421 0.238 75 67 56
-62.999 -29.233 0.232 58 48 38
-63.001 -29.045 0.226 85 75 65
-62.993 -28.857 0.221 87 77 67
-62.984 -28.668 0.215 70 64 50
-62.968 -28.479 0.209 96 89 73
-62.946 -28.290 0.204 127 119 106
-62.912 -28.103 0.201 135 132 125
-62.895 -27.910 0.192 32 33 19
-63.984 -27.350 -0.090 46 47 29
-65.109 -26.714 -0.386 101 104 87
-64.398 -26.719 -0.230 80 82 69
-64.543 -26.405 -0.288 44 45 37
-65.004 -25.937 -0.430 60 62 48
-64.898 -25.705 -0.430 65 70 50
-64.805 -25.465 -0.435 52 57 34
-64.701 -25.230 -0.439 60 65 43
-64.472 -25.064 -0.411 103 107 93
-62.289 -26.077 0.148 143 145 142
-62.215 -25.893 0.140 135 137 136
-62.140 -25.708 0.131 58 59 54
-62.053 -25.529 0.124 128 129 123
-61.965 -25.348 0.116 93 94 88
-61.872 -25.169 0.108 37 38 32
-61.775 -24.991 0.100 84 83 78
-61.674 -24.814 0.091 132 131 126
-61.566 -24.640 0.083 80 79 74
-61.456 -24.467 0.075 41 40 35
-61.342 -24.295 0.065 99 96 91
-61.220 -24.128 0.057 130 127 122
-61.096 -23.960 0.048 80 80 72
-60.982 -23.777 0.034 135 138 121
-60.891 -23.562 0.010 91 92 60
-61.125 -22.922 -0.141 127 122 92
-60.656 -23.175 -0.028 138 125 106
-60.505 -23.020 -0.037 138 127 107
-60.348 -22.869 -0.045 140 127 110
-60.196 -22.706 -0.057 140 127 110
-60.032 -22.559 -0.067 138 127 109
-59.859 -22.423 -0.074 134 126 107
-59.674 -22.305 -0.077 128 136 115
-60.613 -19.954 -0.664 71 63 40
-59.917 -20.769 -0.422 198 170 148
-59.045 -22.108 -0.054 137 122 103
-58.845 -22.025 -0.053 133 126 108
-58.650 -21.929 -0.057 132 121 101
-58.454 -21.836 -0.062 128 119 102
-58.254 -21.750 -0.065 108 104 93
-58.044 -21.693 -0.063 58 63 59
-57.837 -21.628 -0.064 28 34 34
-57.632 -21.549 -0.070 29 37 39
-57.427 -21.469 -0.077 20 30 32
-57.220 -21.387 -0.086 52 59 65
-57.011 -21.310 -0.095 12 42 50
-56.799 -21.235 -0.104 107 96 104
-56.585 -21.165 -0.113 73 34 35
-56.367 -21.105 -0.122 89 68 67
-56.147 -21.058 -0.128 50 9 17
-55.924 -21.017 -0.135 88 58 66
-55.701 -20.973 -0.143 14 18 21
-54.424 -28.306 1.466 147 146 116
-54.354 -28.290 1.454 146 151 119
-54.303 -28.309 1.451 126 133 100
-54.251 -28.330 1.448 109 109 81
-54.213 -28.370 1.451 187 187 161
-54.173 -28.406 1.453 181 183 159
-54.111 -28.413 1.444 81 85 62
-54.048 -28.422 1.436 96 100 73
-53.981 -28.429 1.427 100 106 72
-53.918 -28.443 1.419 93 99 61
-53.873 -28.479 1.418 102 108 74
-53.838 -28.524 1.420 94 99 69
-53.804 -28.570 1.422 106 111 81
-53.774 -28.619 1.425 104 109 79
-53.748 -28.671 1.429 101 105 78
-53.723 -28.724 1.432 111 118 85
-53.700 -28.776 1.436 115 122 89
-53.677 -28.828 1.439 89 96 62
-53.655 -28.879 1.442 107 115 78
-53.637 -28.933 1.446 88 96 72
-53.630 -28.993 1.453 44 44 34
-53.607 -29.042 1.455 73 72 70
-53.582 -29.089 1.455 50 50 50
-53.557 -29.136 1.455 30 31 25
-53.528 -29.181 1.454 56 58 47
-53.495 -29.225 1.451 110 113 92
-53.473 -29.274 1.451 119 124 92
-53.454 -29.324 1.452 80 87 56
-53.440 -29.376 1.454 86 92 66
-53.432 -29.430 1.456 115 121 95
-53.425 -29.484 1.459 76 81 58
-53.419 -29.537 1.462 77 82 59
-53.413 -29.591 1.464 63 69 43
-53.408 -29.643 1.466 103 109 81
-53.410 -29.697 1.470 110 117 86
-53.417 -29.752 1.474 89 98 69
-53.422 -29.805 1.478 92 98 70
-53.420 -29.856 1.480 114 119 89
-53.428 -29.909 1.483 130 134 101
-53.443 -29.961 1.488 130 135 105
-53.486 -30.014 1.500 86 90 73
-53.514 -30.065 1.508 60 63 56
-53.514 -30.113 1.509 28 30 27
-53.495 -30.161 1.504 18 19 14
-53.484 -30.210 1.501 71 73 60
-53.478 -30.259 1.499 95 98 79
-53.473 -30.309 1.497 82 85 68
-53.468 -30.359 1.495 91 96 74
-53.470 -30.409 1.494 91 95 80
-53.479 -30.457 1.494 72 78 68
-53.498 -30.504 1.497 58 66 55
-53.510 -30.552 1.498 112 114 111
-53.529 -30.598 1.500 36 41 37
-53.552 -30.643 1.503 86 93 86
-53.577 -30.687 1.507 57 67 58
-53.629 -30.721 1.517 158 159 154
-53.695 -30.749 1.530 82 82 80
-53.671 -30.807 1.520 65 67 62
-53.479 -30.931 1.464 164 160 151
-53.392 -31.024 1.435 161 155 133
-53.399 -31.082 1.431 144 140 128
-53.442 -31.123 1.437 41 40 38
-53.447 -31.182 1.431 20 17 12
-53.325 -31.310 1.389 175 171 160
-53.361 -31.359 1.391 141 133 120
-53.397 -31.407 1.393 133 125 114
-49.744 -33.790 0.301 194 191 186
-50.090 -33.759 0.378 215 211 200
-53.248 -31.730 1.318 169 160 143
-53.305 -31.771 1.323 173 162 144
-53.363 -31.810 1.329 162 155 139
-53.424 -31.845 1.335 28 28 28
-53.456 -31.903 1.332 38 38 38
-53.454 -31.993 1.317 30 27 22
-53.422 -32.116 1.290 182 175 165
-53.430 -32.207 1.275 185 176 161
-53.446 -32.292 1.263 155 159 145
-53.352 -32.503 1.208 101 116 109
-53.416 -32.548 1.210 118 122 123
-53.542 -32.516 1.237 90 90 90
-53.569 -32.603 1.224 140 140 138
-53.560 -32.744 1.195 58 59 51
-53.582 -32.849 1.176 92 96 81
-53.553 -33.038 1.133 117 117 93
-53.601 -33.121 1.123 136 141 111
-53.674 -33.165 1.123 52 60 36
-53.735 -33.232 1.116 150 153 142
-53.808 -33.280 1.114 178 180 179
-53.866 -33.357 1.104 99 108 105
-53.924 -33.440 1.091 97 108 102
-53.981 -33.533 1.076 171 178 171
-54.045 -33.615 1.064 135 134 130
-54.114 -33.690 1.052 122 123 118
-54.184 -33.768 1.040 120 133 126
-54.258 -33.845 1.028 102 128 119
-54.332 -33.930 1.014 92 102 101
-54.380 -34.119 0.971 36 55 53
-54.459 -34.219 0.952 137 168 163
-54.549 -34.287 0.941 84 110 109
-54.642 -34.351 0.930 14 34 33
-54.739 -34.406 0.921 50 61 65
-54.836 -34.467 0.910 65 69 78
-54.937 -34.526 0.898 66 70 79
-55.040 -34.584 0.887 58 62 71
-55.145 -34.637 0.876 72 77 83
-55.252 -34.697 0.862 61 66 72
-55.362 -34.751 0.850 76 81 87
-55.475 -34.799 0.838 70 76 88
-55.590 -34.849 0.826 32 25 33
-55.709 -34.919 0.807 78 62 62
-55.870 -35.508 0.657 129 122 116
-56.021 -35.708 0.604 26 32 22
-56.166 -35.759 0.587 123 131 110
-56.312 -35.805 0.571 100 111 79
-56.454 -35.801 0.566 69 79 52
-56.592 -35.777 0.566 0 4 0
-56.730 -35.750 0.565 11 23 19
-56.872 -35.737 0.560 44 45 39
-57.025 -35.762 0.544 94 35 19
-57.174 -35.761 0.534 88 85 52
-57.319 -35.743 0.527 50 60 25
-57.460 -35.710 0.524 14 24 0
-57.589 -35.640 0.529 156 163 145
-57.718 -35.576 0.532 58 53 49
-57.852 -35.524 0.531 96 94 69
-57.979 -35.456 0.533 14 15 10
-58.135 -35.445 0.518 31 36 29
-58.301 -35.448 0.498 44 57 31
-58.423 -35.364 0.502 32 31 29
-58.535 -35.266 0.509 26 30 15
-58.611 -35.114 0.532 83 86 67
-58.673 -34.947 0.558 69 64 61
-58.783 -34.858 0.561 146 144 132
-58.907 -34.788 0.557 147 141 125
-58.987 -34.662 0.570 150 140 128
-59.143 -34.631 0.552 143 134 127
-59.305 -34.601 0.531 150 141 134
-59.466 -34.564 0.511 153 146 138
-59.626 -34.521 0.492 148 143 137
-59.782 -34.468 0.474 146 141 135
-59.930 -34.403 0.459 144 139 133
-60.079 -34.334 0.443 145 140 134
-60.216 -34.250 0.432 141 136 130
-60.352 -34.163 0.420 143 138 132
-60.481 -34.068 0.409 142 137 131
-60.621 -33.977 0.395 142 137 131
-60.758 -33.882 0.381 145 140 134
-60.887 -33.777 0.370 137 134 125
-61.015 -33.669 0.358 135 127 116
-61.138 -33.556 0.346 140 128 112
-61.256 -33.436 0.336 137 127 115
-61.378 -33.316 0.323 139 127 115
-61.485 -33.186 0.315 140 128 114
-61.597 -33.057 0.304 141 129 115
-61.707 -32.924 0.292 138 126 112
-61.812 -32.786 0.282 134 125 108
-61.912 -32.644 0.272 137 128 111
-62.011 -32.500 0.261 136 124 108
-62.102 -32.350 0.252 137 124 108
-62.191 -32.198 0.242 142 130 114
-62.278 -32.044 0.232 130 121 104
-62.364 -31.887 0.221 132 120 104
-62.446 -31.727 0.210 135 122 106
-62.526 -31.564 0.199 136 122 111
-62.595 -31.397 0.190 135 122 106
-62.659 -31.227 0.181 133 121 105
-62.712 -31.054 0.174 131 121 109
-62.747 -30.877 0.170 124 116 103
-62.773 -30.699 0.167 121 113 100
-62.799 -30.521 0.163 94 85 76
-62.836 -30.342 0.156 74 65 60
-62.868 -30.161 0.148 67 58 53
-62.894 -29.979 0.141 63 54 45
-62.915 -29.796 0.134 96 88 75
-62.925 -29.612 0.129 90 83 67
-62.941 -29.426 0.121 83 74 57
-62.952 -29.239 0.113 85 73 57
-62.953 -29.052 0.106 77 65 49
-62.941 -28.866 0.102 93 81 65
-62.936 -28.677 0.095 97 88 71
-62.922 -28.489 0.088 110 99 81
-62.897 -28.302 0.084 136 127 112
-62.858 -28.118 0.081 130 127 120
-62.808 -27.937 0.081 74 70 67
-62.766 -27.753 0.077 47 44 37
-62.722 -27.568 0.072 82 79 70
-62.717 -27.368 0.056 70 67 60
-62.624 -27.200 0.062 68 65 60
-63.730 -26.502 -0.262 28 28 16
-64.710 -25.794 -0.559 114 116 102
-64.420 -25.659 -0.508 101 105 91
-62.939 -26.172 -0.120 53 56 45
-62.317 -26.286 0.030 55 58 51
-62.242 -26.105 0.024 126 128 125
-62.178 -25.917 0.013 144 146 141
-62.105 -25.731 0.003 40 41 35
-62.022 -25.550 -0.006 56 57 51
-61.932 -25.372 -0.014 128 129 123
-61.842 -25.192 -0.023 108 109 103
-61.748 -25.013 -0.033 36 35 30
-61.649 -24.836 -0.042 76 75 70
-61.542 -24.662 -0.051 126 125 120
-61.432 -24.490 -0.060 113 112 107
-61.318 -24.318 -0.070 52 49 44
-61.200 -24.149 -0.080 58 55 50
-61.081 -23.976 -0.091 111 111 103
-60.969 -23.792 -0.107 133 134 126
-60.864 -23.594 -0.128 118 112 96
-60.749 -23.404 -0.147 139 128 110
-60.628 -23.213 -0.167 139 123 107
-60.483 -23.050 -0.179 137 126 106
-60.330 -22.896 -0.189 140 127 110
-60.178 -22.734 -0.202 140 127 110
-60.017 -22.583 -0.213 138 127 109
-59.846 -22.446 -0.221 134 126 107
-59.651 -22.348 -0.219 121 125 110
-60.494 -20.190 -0.796 93 108 79
-60.387 -19.776 -0.878 148 139 106
-59.036 -22.127 -0.201 145 126 109
-58.834 -22.052 -0.198 129 124 105
-58.636 -21.967 -0.200 131 123 102
-58.441 -21.872 -0.205 128 117 99
-58.243 -21.784 -0.210 116 110 98
-58.036 -21.719 -0.210 80 82 79
-57.828 -21.660 -0.210 40 46 44
-57.624 -21.583 -0.215 27 36 35
-57.420 -21.502 -0.223 12 20 22
-57.214 -21.419 -0.233 24 25 27
-57.006 -21.340 -0.243 10 40 48
-56.795 -21.267 -0.252 57 51 63
-56.581 -21.193 -0.263 57 25 30
-56.364 -21.135 -0.272 44 26 26
-56.144 -21.087 -0.279 85 56 58
-55.923 -21.046 -0.286 56 42 42
-55.700 -21.018 -0.291 18 22 25
-55.475 -29.191 1.740 241 224 206
-55.428 -29.192 1.740 244 227 209
-55.403 -29.182 1.737 244 227 209
-55.380 -29.198 1.741 247 232 209
-55.357 -29.200 1.741 240 227 210
-55.332 -29.194 1.738 255 242 225
-55.309 -29.202 1.739 251 235 220
-54.591 -28.404 1.473 195 194 164
-54.429 -28.203 1.405 148 149 118
-54.361 -28.194 1.394 96 99 68
-54.309 -28.215 1.392 119 124 92
-54.265 -28.250 1.394 95 105 71
-54.216 -28.277 1.393 118 123 93
-54.163 -28.299 1.390 116 121 91
-54.110 -28.320 1.386 110 117 86
-54.056 -28.343 1.382 102 109 78
-54.001 -28.364 1.377 109 114 92
-53.943 -28.385 1.371 95 100 77
-53.894 -28.417 1.369 98 104 76
-53.852 -28.457 1.369 90 96 68
-53.818 -28.504 1.372 85 93 70
-53.784 -28.551 1.374 77 85 61
-53.753 -28.600 1.377 100 109 82
-53.727 -28.654 1.382 81 89 66
-53.702 -28.706 1.385 74 82 59
-53.671 -28.753 1.387 101 109 85
-53.652 -28.809 1.392 102 111 84
-53.633 -28.864 1.396 83 92 63
