ply
format ascii 1.0
element vertex 1492
property float x
property float y
property float z
property uchar red
property uchar green
property uchar blue
end_header
-41.313 -40.483 2.226 111 123 85
-41.401 -40.480 2.227 168 174 130
-41.492 -40.484 2.229 50 57 16
-41.579 -40.473 2.230 118 128 91
-41.663 -40.453 2.231 164 176 128
-41.747 -40.429 2.232 45 70 15
-41.792 -40.317 2.226 78 85 54
-41.762 -40.055 2.210 61 58 53
-41.853 -40.061 2.213 66 60 60
-41.944 -40.063 2.215 78 66 66
-42.034 -40.056 2.218 80 72 70
-42.127 -40.053 2.221 101 100 96
-42.223 -40.050 2.224 136 137 132
-42.316 -40.039 2.227 150 149 144
-42.410 -40.025 2.229 147 146 142
-42.504 -40.008 2.232 83 94 90
-42.598 -39.987 2.235 105 128 122
-42.690 -39.960 2.237 97 110 101
-42.781 -39.929 2.239 54 59 55
-42.870 -39.894 2.242 60 69 66
-42.953 -39.850 2.243 123 123 123
-43.022 -39.790 2.244 120 116 117
-43.098 -39.737 2.245 166 166 164
-43.183 -39.690 2.247 153 152 147
-43.266 -39.640 2.249 149 144 140
-43.351 -39.589 2.251 161 158 153
-43.438 -39.538 2.253 152 149 144
-43.523 -39.483 2.255 156 151 147
-43.608 -39.426 2.258 137 136 131
-43.692 -39.366 2.260 124 125 120
-43.779 -39.306 2.263 145 145 143
-43.857 -39.238 2.265 148 147 145
-43.938 -39.171 2.267 97 96 94
-44.125 -39.157 2.277 115 116 111
-47.989 -40.986 2.557 208 210 207
-48.137 -40.825 2.561 209 209 209
-48.281 -40.659 2.565 219 218 213
-44.850 -39.009 2.316 46 48 37
-45.029 -38.950 2.326 47 51 37
-45.254 -38.902 2.338 18 22 7
-45.374 -38.808 2.344 45 49 34
-45.429 -38.690 2.345 46 51 44
-45.469 -38.567 2.345 8 13 9
-45.557 -38.456 2.349 31 33 28
-45.666 -38.347 2.354 51 53 42
-45.767 -38.232 2.359 18 29 12
-45.864 -38.112 2.364 33 46 28
-45.947 -37.987 2.368 31 33 19
-46.006 -37.855 2.371 19 28 9
-46.060 -37.721 2.373 43 58 39
-46.082 -37.582 2.374 21 29 18
-46.097 -37.443 2.374 31 38 30
-46.093 -37.303 2.374 16 24 11
-46.071 -37.163 2.372 13 19 15
-46.067 -37.024 2.372 28 30 27
-46.062 -36.884 2.372 44 42 30
-46.053 -36.746 2.372 135 136 120
-46.053 -36.606 2.373 44 54 29
-45.913 -36.482 2.364 23 23 13
-45.281 -36.438 2.324 47 57 59
-45.228 -36.324 2.322 45 55 56
-45.213 -36.205 2.322 46 50 53
-45.207 -36.082 2.323 48 53 57
-45.204 -35.958 2.325 52 57 61
-45.198 -35.834 2.327 129 135 133
-45.192 -35.708 2.329 138 142 145
-45.185 -35.580 2.331 143 146 151
-45.171 -35.454 2.333 54 57 62
-45.158 -35.325 2.335 70 74 77
-45.142 -35.196 2.337 64 69 73
-45.128 -35.065 2.339 58 63 67
-45.107 -34.934 2.342 33 38 42
-45.086 -34.801 2.344 28 33 37
-45.058 -34.670 2.347 42 43 48
-45.026 -34.539 2.349 66 67 71
-44.984 -34.412 2.351 107 111 112
-44.942 -34.283 2.353 89 95 95
-44.900 -34.152 2.355 50 55 58
-44.851 -34.024 2.357 14 17 22
-44.798 -33.897 2.359 15 20 24
-44.738 -33.773 2.361 13 21 24
-44.670 -33.654 2.362 14 20 18
-44.600 -33.535 2.364 4 8 7
-44.530 -33.414 2.366 3 7 8
-44.456 -33.296 2.368 15 19 20
-44.379 -33.178 2.369 18 21 26
-44.295 -33.066 2.371 13 16 23
-44.205 -32.958 2.372 7 10 17
-44.112 -32.853 2.373 15 18 23
-44.020 -32.745 2.375 15 19 20
-43.922 -32.644 2.376 14 18 17
-43.818 -32.547 2.377 5 9 8
-43.712 -32.452 2.378 17 21 20
-43.609 -32.352 2.379 32 37 33
-43.502 -32.256 2.381 78 80 77
-43.392 -32.163 2.382 113 115 112
-43.279 -32.071 2.384 82 82 80
-43.163 -31.983 2.385 137 139 138
-43.047 -31.893 2.387 23 27 28
-42.929 -31.804 2.389 8 12 13
-42.806 -31.723 2.390 16 20 21
-42.680 -31.646 2.391 0 6 9
-42.553 -31.569 2.393 7 15 18
-42.425 -31.488 2.395 9 17 20
-42.295 -31.409 2.397 11 19 22
-42.162 -31.338 2.399 1 9 11
-42.027 -31.263 2.401 23 31 33
-41.889 -31.196 2.403 19 27 30
-41.749 -31.130 2.405 25 33 36
-41.607 -31.069 2.407 40 47 53
-41.461 -31.017 2.409 36 43 49
-41.314 -30.962 2.411 38 45 51
-41.165 -30.916 2.413 50 57 63
-41.014 -30.869 2.414 52 60 62
-40.862 -30.828 2.416 6 14 16
-40.708 -30.783 2.419 7 15 17
-40.552 -30.749 2.421 13 21 23
-40.395 -35.980 2.058 146 133 116
-40.366 -35.992 2.058 199 199 187
-40.337 -35.993 2.058 199 196 181
-40.308 -35.992 2.058 221 213 202
-40.280 -35.997 2.058 203 194 187
-40.250 -35.990 2.058 179 184 178
-40.222 -35.999 2.058 196 194 179
-40.193 -36.004 2.058 187 172 149
-40.165 -36.009 2.058 100 90 80
-40.136 -36.014 2.058 89 80 73
-40.108 -36.021 2.058 118 111 103
-40.081 -36.029 2.058 134 131 122
-40.053 -36.038 2.058 116 118 97
-40.025 -36.044 2.058 109 109 85
-39.999 -36.056 2.058 98 96 73
-39.973 -36.070 2.058 126 121 99
-39.945 -36.078 2.058 114 94 69
-39.917 -36.086 2.058 109 93 78
-39.894 -36.104 2.058 88 78 76
-39.869 -36.119 2.057 89 76 68
-39.844 -36.133 2.057 89 75 75
-39.820 -36.149 2.057 85 72 79
-39.797 -36.165 2.057 84 74 83
-39.774 -36.182 2.057 78 72 84
-39.753 -36.203 2.057 55 70 99
-39.730 -36.219 2.057 58 65 83
-39.710 -36.240 2.056 72 87 108
-39.694 -36.266 2.056 62 94 132
-39.675 -36.286 2.056 71 104 147
-39.651 -36.301 2.056 170 198 220
-39.631 -36.321 2.056 67 106 147
-39.614 -36.343 2.056 63 115 165
-39.599 -36.368 2.055 47 108 162
-39.585 -36.392 2.055 53 113 173
-39.566 -36.412 2.055 82 112 148
-39.551 -36.435 2.055 63 116 168
-39.538 -36.460 2.054 83 119 155
-39.523 -36.482 2.054 111 131 155
-39.509 -36.507 2.054 63 119 170
-39.497 -36.531 2.054 53 127 192
-39.481 -36.552 2.054 58 126 191
-39.466 -36.575 2.054 55 124 179
-39.453 -36.599 2.054 83 114 145
-39.430 -36.617 2.054 244 243 215
-39.420 -36.642 2.054 225 218 210
-39.411 -36.668 2.054 205 201 190
-39.400 -36.693 2.054 211 207 196
-39.391 -36.718 2.054 220 216 205
-39.382 -36.744 2.054 216 208 197
-39.373 -36.769 2.054 206 203 188
-39.366 -36.795 2.054 192 193 179
-39.357 -36.820 2.054 214 212 200
-39.349 -36.846 2.054 211 207 195
-39.344 -36.872 2.054 221 217 205
-39.341 -36.899 2.053 219 215 203
-39.339 -36.926 2.053 217 213 201
-39.338 -36.953 2.053 216 222 218
-39.335 -36.979 2.053 212 200 188
-39.331 -37.005 2.053 207 208 194
-39.326 -37.031 2.053 250 221 187
-39.320 -37.057 2.053 240 229 211
-39.315 -37.083 2.053 241 233 214
-39.311 -37.110 2.053 247 235 221
-39.315 -37.136 2.053 225 212 203
-39.323 -37.163 2.053 231 209 195
-39.329 -37.189 2.052 202 178 166
-39.324 -37.216 2.053 189 161 140
-38.381 -37.311 2.099 115 102 85
-38.277 -37.371 2.105 47 48 40
-38.279 -37.424 2.105 27 27 17
-38.299 -37.474 2.104 80 80 72
-38.308 -37.525 2.104 42 42 32
-38.309 -37.578 2.104 52 54 32
-38.311 -37.631 2.105 120 117 98
-38.319 -37.683 2.105 61 57 45
-38.332 -37.734 2.105 46 48 34
-38.353 -37.782 2.105 80 83 66
-38.375 -37.830 2.104 48 50 29
-38.408 -37.874 2.104 88 90 68
-38.443 -37.916 2.103 59 59 49
-38.476 -37.958 2.102 74 77 70
-38.507 -38.000 2.101 34 39 35
-38.532 -38.044 2.101 21 23 22
-38.554 -38.089 2.101 22 24 11
-38.582 -38.132 2.101 74 78 61
-38.619 -38.169 2.100 123 127 112
-38.661 -38.202 2.099 62 65 56
-38.697 -38.238 2.099 38 40 35
-38.727 -38.277 2.099 58 63 59
-38.757 -38.316 2.098 24 28 29
-38.786 -38.356 2.098 44 48 49
-38.810 -38.399 2.099 72 78 66
-38.839 -38.440 2.099 58 67 38
-38.876 -38.473 2.099 74 84 47
-38.916 -38.503 2.098 106 117 75
-38.959 -38.530 2.097 97 107 70
-38.999 -38.558 2.097 81 93 57
-39.039 -38.587 2.097 114 126 88
-39.084 -38.608 2.096 88 98 63
-39.126 -38.633 2.095 81 89 65
-39.168 -38.658 2.095 47 54 36
-39.207 -38.684 2.095 69 76 60
-39.247 -38.710 2.095 77 85 62
-39.286 -38.737 2.095 118 128 94
-39.328 -38.758 2.094 146 154 115
-39.385 -38.758 2.093 65 72 41
-39.439 -38.756 2.091 36 40 23
-39.486 -38.767 2.091 58 62 48
-39.528 -38.784 2.090 47 49 38
-39.568 -38.806 2.090 86 88 74
-39.606 -38.829 2.091 66 71 51
-39.647 -38.850 2.091 45 53 32
-39.691 -38.861 2.090 47 55 44
-39.738 -38.864 2.090 39 45 41
-39.784 -38.870 2.089 38 44 42
-39.827 -38.880 2.089 39 45 43
-39.870 -38.893 2.089 61 67 63
-39.911 -38.910 2.089 67 72 66
-39.952 -38.931 2.090 35 41 31
-39.991 -38.961 2.091 38 42 28
-40.018 -39.055 2.095 46 54 30
-40.031 -39.261 2.105 115 131 92
-40.082 -39.270 2.105 40 54 29
-40.157 -39.090 2.095 62 65 58
-40.190 -39.243 2.103 150 144 128
-40.238 -39.279 2.104 159 150 133
-40.289 -39.301 2.105 156 146 134
-40.342 -39.310 2.106 104 99 95
-40.395 -39.334 2.107 96 95 90
-40.449 -39.376 2.109 171 168 161
-40.507 -39.461 2.113 179 172 162
-40.567 -39.499 2.115 179 169 159
-40.627 -39.519 2.116 175 165 153
-40.688 -39.544 2.118 182 174 163
-40.751 -39.569 2.119 177 170 160
-40.819 -39.607 2.122 161 152 147
-40.904 -39.726 2.128 109 89 88
-41.034 -40.009 2.143 103 93 94
-41.210 -40.418 2.165 73 82 61
-41.325 -40.524 2.171 23 36 6
-41.421 -40.548 2.174 127 141 105
-41.506 -40.527 2.174 86 99 73
-41.589 -40.502 2.174 3 14 0
-41.673 -40.478 2.175 91 105 69
-41.758 -40.454 2.175 76 87 31
-41.798 -40.329 2.170 136 127 96
-41.766 -40.062 2.158 123 114 107
-41.857 -40.068 2.160 130 125 121
-41.947 -40.067 2.162 171 167 164
-42.037 -40.063 2.164 173 172 168
-42.131 -40.061 2.166 46 45 41
-42.229 -40.060 2.168 150 149 145
-42.320 -40.045 2.170 153 148 144
-42.414 -40.030 2.172 128 121 115
-42.507 -40.012 2.174 134 120 119
-42.600 -39.989 2.176 132 112 114
-42.692 -39.962 2.178 110 88 91
-42.782 -39.931 2.180 159 144 147
-42.870 -39.894 2.181 91 90 88
-42.953 -39.850 2.182 97 99 98
-43.029 -39.797 2.183 137 139 136
-43.107 -39.745 2.184 136 137 132
-43.193 -39.699 2.186 129 128 123
-43.277 -39.650 2.187 174 174 166
-43.362 -39.599 2.189 160 159 154
-43.449 -39.547 2.190 115 116 110
-43.534 -39.491 2.192 121 122 116
-43.613 -39.430 2.193 145 146 140
-43.689 -39.364 2.195 86 85 81
-43.753 -39.289 2.195 36 35 31
-43.812 -39.211 2.196 18 17 13
-43.891 -39.143 2.197 37 36 32
-44.195 -39.194 2.212 82 83 78
-48.011 -40.997 2.419 200 202 201
-48.162 -40.837 2.422 200 200 200
-48.290 -40.663 2.424 218 217 212
-44.680 -38.938 2.228 49 50 42
-44.762 -38.848 2.230 31 32 26
-44.888 -38.771 2.234 60 61 55
-45.050 -38.701 2.241 41 42 36
-45.209 -38.623 2.247 28 33 27
-45.342 -38.532 2.252 23 25 20
-45.458 -38.431 2.256 30 33 26
-45.567 -38.324 2.260 20 21 13
-45.687 -38.216 2.265 26 32 20
-45.802 -38.101 2.270 21 29 18
-45.883 -37.977 2.273 23 25 20
-45.949 -37.848 2.275 30 30 22
-45.994 -37.714 2.276 15 19 5
-46.017 -37.578 2.277 34 37 30
-46.022 -37.439 2.277 21 23 20
-46.022 -37.301 2.277 29 31 28
-46.025 -37.163 2.277 27 34 26
-46.030 -37.025 2.277 35 37 26
-46.032 -36.886 2.277 32 33 19
-46.041 -36.746 2.278 41 42 24
-46.053 -36.606 2.279 124 143 97
-45.959 -36.477 2.275 44 53 24
-45.275 -36.439 2.242 43 54 50
-45.221 -36.325 2.241 44 54 56
-45.199 -36.207 2.241 54 58 59
-45.189 -36.086 2.241 51 56 59
-45.187 -35.963 2.243 39 44 48
-45.188 -35.837 2.244 28 34 34
-45.183 -35.710 2.246 37 41 44
-45.175 -35.584 2.247 76 79 84
-45.165 -35.456 2.249 104 107 112
-45.149 -35.329 2.250 82 85 90
-45.135 -35.199 2.252 44 49 52
-45.119 -35.069 2.254 3 9 9
-45.097 -34.939 2.256 14 20 20
-45.070 -34.809 2.257 8 14 14
-45.035 -34.682 2.259 19 20 22
-44.995 -34.557 2.260 16 18 17
-44.950 -34.433 2.261 9 13 12
-44.902 -34.309 2.262 2 8 4
-44.853 -34.184 2.263 10 11 13
-44.790 -34.067 2.264 10 11 13
-44.733 -33.945 2.265 11 12 14
-44.672 -33.825 2.267 34 38 39
-44.600 -33.711 2.267 22 28 26
-44.528 -33.598 2.268 14 20 20
-44.455 -33.483 2.269 34 40 40
-44.380 -33.368 2.270 48 53 56
-44.306 -33.251 2.272 102 108 106
-44.223 -33.142 2.273 81 87 85
-44.135 -33.036 2.274 101 107 105
-44.046 -32.930 2.275 19 25 23
-43.956 -32.823 2.276 12 18 18
-43.864 -32.718 2.277 2 8 8
-43.766 -32.617 2.278 10 16 16
-43.669 -32.514 2.279 46 52 52
-43.569 -32.412 2.281 9 18 17
-43.466 -32.313 2.282 7 15 17
-43.358 -32.219 2.283 14 19 22
-43.249 -32.123 2.285 0 4 7
-43.139 -32.029 2.286 27 35 37
-43.028 -31.931 2.288 24 34 36
-42.914 -31.837 2.289 26 36 38
-42.794 -31.749 2.291 36 46 48
-42.672 -31.664 2.292 59 68 73
-42.548 -31.579 2.294 94 103 108
-42.424 -31.492 2.296 27 36 41
-42.294 -31.412 2.298 50 59 64
-42.162 -31.337 2.299 44 54 56
-42.028 -31.262 2.301 48 58 60
-41.890 -31.193 2.302 49 58 63
-41.750 -31.127 2.304 27 36 43
-41.607 -31.068 2.305 50 59 66
-41.461 -31.015 2.307 50 59 66
-41.315 -30.958 2.308 55 64 71
-41.166 -30.911 2.309 49 58 65
-41.015 -30.864 2.311 51 59 62
-40.862 -30.822 2.312 11 19 21
-40.708 -30.778 2.314 10 18 20
-40.552 -30.746 2.315 19 27 29
-40.395 -35.965 2.039 241 228 209
-40.365 -35.975 2.039 118 115 100
-40.336 -35.981 2.039 137 125 109
-40.308 -35.988 2.039 233 220 212
-40.279 -35.990 2.039 207 198 193
-40.248 -35.977 2.039 160 162 161
-40.220 -35.983 2.039 200 197 182
-40.192 -35.994 2.039 238 218 194
-40.164 -36.003 2.039 125 112 95
-40.135 -36.006 2.039 128 121 103
-40.107 -36.014 2.039 175 174 154
-40.079 -36.023 2.039 194 197 176
-40.052 -36.034 2.039 173 176 169
-40.024 -36.042 2.039 159 160 155
-39.998 -36.054 2.039 180 173 165
-39.972 -36.068 2.038 114 102 88
-39.943 -36.072 2.039 201 185 169
-39.916 -36.082 2.039 117 107 97
-39.892 -36.100 2.038 95 91 90
-39.866 -36.113 2.038 67 66 64
-39.841 -36.127 2.038 101 91 79
-39.815 -36.140 2.038 168 159 144
-39.791 -36.157 2.038 153 144 129
-39.768 -36.173 2.038 117 109 96
-39.746 -36.193 2.038 107 90 80
-39.721 -36.206 2.038 95 68 41
-39.702 -36.229 2.038 97 79 57
-39.686 -36.255 2.038 106 95 89
-39.666 -36.275 2.038 108 95 87
-39.643 -36.292 2.038 229 215 202
-39.624 -36.312 2.038 96 100 101
-39.607 -36.336 2.037 136 151 158
-39.591 -36.359 2.037 151 166 171
-39.576 -36.384 2.037 167 179 193
-39.559 -36.405 2.037 192 191 205
-39.542 -36.428 2.037 162 178 193
-39.530 -36.453 2.037 87 92 98
-39.518 -36.479 2.036 84 87 96
-39.508 -36.505 2.036 73 91 111
-39.493 -36.528 2.036 77 99 123
-39.477 -36.550 2.036 89 104 133
-39.463 -36.573 2.036 90 120 146
-39.446 -36.594 2.036 92 109 129
-39.425 -36.614 2.036 218 218 190
-39.413 -36.638 2.036 211 207 198
-39.403 -36.664 2.036 203 199 188
-39.392 -36.689 2.036 215 211 200
-39.382 -36.714 2.036 213 209 198
-39.373 -36.740 2.036 221 213 202
-39.364 -36.765 2.036 217 213 201
-39.357 -36.792 2.036 191 191 179
-39.346 -36.817 2.036 213 210 201
-39.339 -36.843 2.036 213 211 199
-39.332 -36.869 2.036 215 213 201
-39.330 -36.896 2.036 204 202 190
-39.329 -36.924 2.036 195 193 181
-39.327 -36.951 2.036 223 223 211
-39.324 -36.977 2.036 231 222 207
-39.320 -37.004 2.036 226 232 218
-39.317 -37.030 2.036 154 158 144
-39.314 -37.057 2.036 194 211 239
-39.312 -37.083 2.036 193 204 226
-39.314 -37.110 2.035 210 213 228
-39.318 -37.136 2.035 224 223 229
-39.326 -37.163 2.035 214 218 217
-39.331 -37.189 2.035 201 209 211
-39.319 -37.216 2.035 211 205 193
-38.415 -37.309 2.065 113 110 91
-38.323 -37.367 2.068 75 76 68
-38.326 -37.418 2.068 53 52 48
-38.329 -37.469 2.068 84 83 81
-38.328 -37.522 2.069 26 26 18
-38.331 -37.573 2.069 82 77 58
-38.329 -37.627 2.069 125 117 98
-38.335 -37.679 2.069 114 107 89
-38.352 -37.728 2.069 42 43 27
-38.373 -37.776 2.069 102 105 86
-38.392 -37.825 2.069 120 123 96
-38.418 -37.870 2.069 94 94 66
-38.452 -37.912 2.068 135 132 117
-38.491 -37.951 2.067 50 50 48
-38.521 -37.993 2.067 20 22 21
-38.546 -38.037 2.067 58 60 57
-38.568 -38.083 2.067 93 99 87
-38.590 -38.127 2.067 93 99 73
-38.626 -38.165 2.067 73 80 49
-38.669 -38.197 2.066 85 91 63
-38.708 -38.231 2.065 82 88 62
-38.744 -38.266 2.065 92 97 77
-38.775 -38.304 2.065 54 58 43
-38.803 -38.344 2.065 77 81 64
-38.825 -38.388 2.065 62 67 44
-38.846 -38.434 2.066 65 74 43
-38.874 -38.475 2.066 149 159 122
-38.907 -38.511 2.066 76 87 44
-38.943 -38.545 2.066 83 94 51
-38.983 -38.574 2.065 44 56 20
-39.021 -38.606 2.065 60 72 36
-39.062 -38.633 2.065 89 99 64
-39.107 -38.655 2.065 140 149 122
-39.155 -38.673 2.064 51 56 33
-39.197 -38.697 2.064 100 106 80
-39.239 -38.721 2.063 99 106 75
-39.281 -38.744 2.063 85 92 59
-39.323 -38.767 2.063 115 123 86
-39.385 -38.757 2.062 79 84 61
-39.441 -38.754 2.061 54 57 46
-39.483 -38.773 2.061 126 130 115
-39.525 -38.790 2.060 96 100 85
-39.566 -38.809 2.060 59 62 51
-39.605 -38.832 2.060 61 66 59
-39.646 -38.852 2.060 11 18 11
-39.689 -38.866 2.060 59 65 63
-39.735 -38.874 2.060 36 42 40
-39.780 -38.880 2.060 48 54 52
-39.824 -38.890 2.060 26 32 30
-39.866 -38.904 2.060 27 35 37
-39.908 -38.923 2.060 56 62 60
-39.949 -38.941 2.060 27 35 24
-39.988 -38.975 2.061 58 63 56
-40.010 -39.095 2.064 65 75 64
-40.012 -39.369 2.073 84 98 72
-40.063 -39.396 2.074 48 61 33
-40.128 -39.328 2.071 89 96 62
-40.183 -39.306 2.070 149 149 121
-40.237 -39.296 2.070 171 164 146
-40.288 -39.328 2.071 165 155 145
-40.341 -39.357 2.072 167 160 150
-40.395 -39.392 2.073 173 167 153
-40.450 -39.433 2.074 176 170 154
-40.508 -39.482 2.076 177 169 156
-40.568 -39.513 2.077 178 170 159
-40.628 -39.531 2.078 178 170 159
-40.690 -39.558 2.079 178 170 159
-40.754 -39.583 2.080 177 170 160
-40.820 -39.618 2.082 152 148 139
-40.903 -39.721 2.085 149 142 134
-41.001 -39.866 2.091 106 105 103
-41.188 -40.330 2.107 52 61 42
-41.329 -40.539 2.115 158 171 143
-41.422 -40.550 2.116 33 46 28
-41.509 -40.536 2.116 12 25 18
-41.593 -40.512 2.116 38 50 46
-41.678 -40.489 2.117 46 61 40
-41.762 -40.465 2.117 133 147 96
-41.801 -40.336 2.114 123 119 82
-41.773 -40.077 2.106 142 140 127
-41.862 -40.079 2.107 129 132 125
-41.951 -40.076 2.108 159 164 158
-42.040 -40.068 2.109 173 178 172
-42.135 -40.066 2.111 42 43 38
-42.233 -40.066 2.112 155 151 148
-42.323 -40.049 2.114 97 98 90
-42.416 -40.033 2.115 96 99 90
-42.507 -40.012 2.116 99 104 97
-42.599 -39.987 2.117 82 92 84
-42.685 -39.954 2.118 71 84 77
-42.780 -39.929 2.120 72 83 77
-42.871 -39.895 2.121 54 59 55
-42.957 -39.854 2.122 72 72 70
-43.037 -39.805 2.122 127 129 124
-43.113 -39.751 2.123 108 109 103
-43.192 -39.698 2.124 36 36 28
-43.273 -39.646 2.124 27 27 17
-43.353 -39.591 2.125 22 23 17
-43.426 -39.529 2.126 32 33 27
-43.492 -39.460 2.126 41 42 36
-43.559 -39.392 2.127 62 63 57
-43.622 -39.319 2.127 74 71 66
-43.685 -39.247 2.128 74 71 66
-43.755 -39.177 2.128 67 64 59
-43.839 -39.114 2.130 51 48 43
-44.281 -39.240 2.144 110 111 106
-48.029 -41.006 2.280 209 211 210
-48.183 -40.847 2.282 207 207 207
-48.301 -40.667 2.283 209 208 203
-44.553 -38.885 2.147 73 74 69
-44.597 -38.784 2.147 33 33 31
-44.670 -38.693 2.149 32 32 30
-44.754 -38.603 2.150 36 36 34
-44.929 -38.539 2.155 28 29 23
-45.223 -38.499 2.164 31 34 25
-45.381 -38.412 2.168 32 35 26
-45.468 -38.302 2.170 27 30 23
-45.574 -38.193 2.173 19 37 25
-45.726 -38.088 2.177 25 28 21
-45.839 -37.971 2.180 31 38 30
-45.914 -37.844 2.182 38 50 40
-45.963 -37.711 2.183 46 49 38
-45.998 -37.576 2.184 41 42 34
-45.993 -37.438 2.183 15 20 14
-45.987 -37.300 2.183 42 47 40
-45.992 -37.163 2.183 20 27 19
-45.998 -37.025 2.184 35 37 34
-46.005 -36.887 2.184 32 34 31
-46.016 -36.748 2.185 32 38 28
-46.049 -36.606 2.186 39 54 21
-45.976 -36.475 2.184 77 80 59
-45.789 -36.363 2.179 55 65 54
-45.589 -36.262 2.173 43 57 32
-45.432 -36.161 2.168 78 86 65
-45.166 -36.091 2.160 29 37 26
-45.144 -35.973 2.160 11 16 19
-45.138 -35.850 2.161 9 14 20
-45.133 -35.726 2.162 10 13 18
-45.133 -35.597 2.163 10 13 18
-45.120 -35.472 2.164 17 20 25
-45.102 -35.347 2.165 40 43 48
-45.083 -35.221 2.166 12 18 18
-45.058 -35.096 2.167 27 33 31
-45.029 -34.971 2.168 18 24 22
-45.000 -34.845 2.169 14 20 18
-44.968 -34.719 2.170 30 34 33
-44.926 -34.596 2.170 25 30 26
-44.880 -34.474 2.171 26 31 25
-44.829 -34.355 2.172 61 64 57
-44.783 -34.230 2.173 29 29 29
-44.730 -34.110 2.174 11 12 14
-44.670 -33.992 2.174 8 9 11
-44.611 -33.873 2.175 11 15 16
-44.543 -33.758 2.176 0 8 10
-44.472 -33.645 2.176 1 11 12
-44.398 -33.534 2.177 11 21 23
-44.322 -33.424 2.178 3 12 17
-44.243 -33.314 2.178 16 25 32
-44.162 -33.205 2.179 36 45 52
-44.083 -33.094 2.180 29 38 45
-43.999 -32.985 2.181 25 34 41
-43.916 -32.872 2.182 48 58 60
-43.827 -32.764 2.183 53 63 65
-43.736 -32.657 2.184 54 64 66
-43.647 -32.545 2.185 52 62 64
-43.553 -32.436 2.186 6 20 23
-43.452 -32.335 2.187 48 61 67
-43.350 -32.233 2.188 50 61 67
-43.243 -32.135 2.189 47 56 63
-43.135 -32.035 2.190 52 63 67
-43.023 -31.941 2.191 45 59 62
-42.910 -31.845 2.193 24 38 41
-42.792 -31.755 2.194 55 69 72
-42.672 -31.664 2.195 53 64 66
-42.549 -31.577 2.196 49 60 62
-42.424 -31.490 2.197 49 60 62
-42.294 -31.412 2.198 49 60 62
-42.163 -31.334 2.199 55 66 68
-42.029 -31.258 2.201 52 63 67
-41.891 -31.187 2.202 55 66 72
-41.751 -31.124 2.203 53 63 72
-41.608 -31.065 2.204 40 50 59
-41.462 -31.010 2.204 53 63 72
-41.316 -30.953 2.206 46 56 65
-41.166 -30.904 2.206 51 61 70
-41.015 -30.859 2.207 46 54 57
-40.863 -30.814 2.208 14 22 24
-40.708 -30.774 2.209 23 31 33
-40.552 -30.732 2.211 23 31 33
-40.395 -35.892 2.021 91 76 71
-40.364 -35.925 2.020 91 82 77
-40.335 -35.943 2.020 103 85 73
-40.306 -35.957 2.020 125 110 105
-40.276 -35.962 2.020 109 94 89
-40.245 -35.954 2.020 87 83 80
-40.217 -35.965 2.020 102 94 81
-40.189 -35.980 2.020 207 186 167
-40.162 -35.992 2.020 132 104 93
-40.132 -35.995 2.020 143 113 105
-40.104 -36.004 2.020 117 87 79
-40.076 -36.012 2.020 114 85 77
-40.049 -36.023 2.019 187 143 140
-40.021 -36.033 2.019 172 121 117
-39.995 -36.047 2.019 211 157 145
-39.970 -36.062 2.019 200 141 125
-39.940 -36.065 2.019 222 182 157
-39.912 -36.075 2.019 170 135 115
-39.888 -36.091 2.019 154 116 107
-39.862 -36.105 2.019 110 69 65
-39.836 -36.119 2.019 114 101 92
-39.810 -36.131 2.019 123 119 108
-39.787 -36.149 2.019 127 123 112
-39.763 -36.166 2.019 137 133 122
-39.741 -36.185 2.019 96 85 67
-39.715 -36.197 2.019 173 162 130
-39.697 -36.222 2.019 101 106 84
-39.680 -36.248 2.019 26 35 34
-39.659 -36.267 2.019 92 97 91
-39.638 -36.285 2.019 180 183 190
-39.619 -36.307 2.019 144 164 173
-39.603 -36.332 2.019 119 143 153
-39.587 -36.355 2.019 208 230 251
-39.570 -36.378 2.019 186 205 219
-39.551 -36.398 2.019 146 168 182
-39.531 -36.418 2.019 71 98 119
-39.514 -36.441 2.019 239 229 217
-39.510 -36.472 2.018 248 240 229
-39.501 -36.500 2.018 136 124 112
-39.485 -36.522 2.018 125 108 92
-39.468 -36.544 2.018 129 109 98
-39.456 -36.568 2.018 136 123 106
-39.437 -36.589 2.018 155 136 122
-39.419 -36.611 2.018 208 203 171
-39.408 -36.635 2.018 205 202 195
-39.397 -36.661 2.018 213 209 198
-39.387 -36.686 2.018 213 209 198
-39.376 -36.711 2.018 215 211 200
-39.367 -36.737 2.018 212 203 194
-39.358 -36.763 2.018 211 207 196
-39.353 -36.790 2.018 193 193 183
-39.342 -36.815 2.018 204 201 194
-39.333 -36.841 2.018 214 211 202
-39.326 -36.867 2.018 213 210 201
-39.322 -36.894 2.018 204 201 192
-39.320 -36.922 2.018 192 189 180
-39.318 -36.949 2.018 213 211 196
-39.314 -36.975 2.018 218 210 199
-39.311 -37.002 2.018 215 212 197
-39.311 -37.029 2.018 146 154 156
-39.312 -37.056 2.018 55 120 184
-39.312 -37.083 2.018 50 121 185
-39.314 -37.110 2.018 46 121 178
-39.319 -37.137 2.018 60 135 190
-39.327 -37.163 2.017 57 123 173
-39.330 -37.189 2.017 77 134 177
-39.236 -37.220 2.019 84 109 116
-38.429 -37.308 2.032 107 115 92
-38.360 -37.363 2.033 69 79 55
-38.362 -37.414 2.034 67 73 61
-38.357 -37.465 2.034 67 71 70
-38.355 -37.517 2.034 52 57 51
-38.369 -37.566 2.034 170 170 160
-38.354 -37.621 2.034 209 206 189
-38.342 -37.677 2.035 117 112 90
-38.354 -37.728 2.035 73 73 47
-38.376 -37.775 2.035 67 71 44
-38.393 -37.824 2.034 141 144 113
-38.422 -37.869 2.034 125 124 93
-38.457 -37.910 2.034 108 101 82
-38.500 -37.948 2.034 114 109 103
-38.534 -37.988 2.033 39 35 26
-38.552 -38.034 2.033 61 62 46
-38.566 -38.083 2.033 94 98 73
-38.580 -38.133 2.034 116 123 90
-38.604 -38.177 2.034 127 134 100
-38.636 -38.217 2.034 122 130 91
-38.669 -38.256 2.033 92 100 59
-38.704 -38.292 2.033 113 121 82
-38.736 -38.331 2.033 137 145 106
-38.770 -38.368 2.033 113 121 80
-38.802 -38.406 2.033 149 158 115
-38.831 -38.446 2.033 120 131 89
-38.862 -38.485 2.033 74 86 40
-38.898 -38.519 2.033 86 98 50
-38.936 -38.552 2.033 87 98 55
-38.979 -38.579 2.033 54 65 33
-39.020 -38.606 2.033 101 112 80
-39.061 -38.634 2.032 66 76 42
-39.105 -38.658 2.032 50 59 30
-39.144 -38.686 2.032 114 121 90
-39.183 -38.715 2.032 78 85 51
-39.227 -38.738 2.032 79 87 48
-39.276 -38.751 2.032 85 92 59
-39.327 -38.761 2.031 106 112 84
-39.397 -38.739 2.031 58 62 48
-39.449 -38.740 2.030 23 24 26
-39.484 -38.771 2.030 53 56 49
-39.521 -38.798 2.030 79 85 73
-39.566 -38.809 2.030 44 49 43
-39.606 -38.829 2.030 36 42 42
-39.646 -38.852 2.030 33 42 41
-39.688 -38.868 2.030 29 34 37
-39.733 -38.879 2.030 42 47 50
-39.777 -38.888 2.030 28 34 34
-39.821 -38.899 2.030 51 57 55
-39.846 -38.973 2.031 44 50 24
-39.754 -39.478 2.039 126 137 94
-39.809 -39.500 2.039 101 118 63
-39.868 -39.508 2.039 134 154 101
-39.927 -39.512 2.039 69 87 61
-39.986 -39.516 2.039 79 95 66
-40.042 -39.540 2.039 153 166 136
-40.098 -39.565 2.040 157 170 126
-40.164 -39.506 2.039 156 160 127
-40.234 -39.336 2.036 164 158 142
-40.287 -39.349 2.036 169 159 149
-40.340 -39.376 2.036 170 162 149
-40.395 -39.406 2.037 172 164 153
-40.451 -39.444 2.037 176 166 157
-40.509 -39.491 2.038 177 169 158
-40.568 -39.520 2.039 178 170 159
-40.629 -39.544 2.039 177 170 160
-40.691 -39.566 2.040 179 169 160
-40.754 -39.588 2.040 171 162 153
-40.822 -39.626 2.041 157 157 145
-41.060 -40.507 2.056 108 114 86
-41.151 -40.529 2.056 106 114 90
-41.250 -40.577 2.058 143 155 117
-41.341 -40.584 2.058 133 149 104
-41.423 -40.554 2.058 45 58 38
-41.507 -40.532 2.058 50 61 53
-41.590 -40.504 2.058 21 32 28
-41.671 -40.473 2.058 10 22 10
-41.757 -40.451 2.058 75 94 62
-41.810 -40.355 2.057 109 113 90
-41.782 -40.096 2.053 93 96 87
-41.869 -40.093 2.054 95 99 98
-41.957 -40.087 2.054 122 123 118
-42.045 -40.076 2.055 52 53 48
-42.139 -40.074 2.056 61 63 58
-42.234 -40.067 2.056 117 119 114
-42.326 -40.054 2.057 91 104 95
-42.419 -40.038 2.058 31 48 40
-42.511 -40.017 2.058 12 31 25
-42.601 -39.990 2.059 4 25 20
-42.685 -39.954 2.059 13 34 29
-42.765 -39.911 2.059 12 24 20
-42.838 -39.859 2.060 27 26 24
-42.903 -39.798 2.060 39 34 31
-42.969 -39.737 2.060 29 26 21
-43.030 -39.672 2.060 45 42 35
-43.098 -39.613 2.060 74 70 61
-43.171 -39.558 2.060 65 58 48
-43.243 -39.501 2.060 34 29 23
-43.315 -39.442 2.061 48 43 39
-43.396 -39.389 2.061 53 48 44
-43.478 -39.335 2.062 53 48 44
-43.560 -39.278 2.062 55 50 44
-43.639 -39.218 2.063 60 55 49
-43.717 -39.154 2.063 58 53 47
-43.808 -39.097 2.064 67 62 56
-44.353 -39.279 2.073 113 114 109
-48.047 -41.015 2.140 198 200 199
-48.198 -40.854 2.141 205 205 205
-48.302 -40.668 2.142 210 209 204
-44.474 -38.853 2.072 86 87 81
-44.512 -38.751 2.072 39 40 35
-44.572 -38.658 2.073 38 39 34
-44.635 -38.564 2.073 33 34 29
-44.781 -38.494 2.075 25 25 15
-45.202 -38.493 2.082 33 35 24
-45.357 -38.406 2.084 36 39 30
-45.391 -38.285 2.084 25 30 23
-45.456 -38.170 2.084 13 27 10
-45.724 -38.088 2.089 45 29 16
-45.860 -37.974 2.090 25 28 7
-45.928 -37.845 2.091 46 65 43
-45.950 -37.710 2.091 33 36 25
-45.979 -37.575 2.092 21 27 15
-46.016 -37.439 2.092 51 63 39
-46.027 -37.301 2.092 94 112 72
-46.012 -37.163 2.092 48 62 37
-45.985 -37.026 2.092 26 32 22
-45.999 -36.888 2.092 33 39 29
-46.015 -36.748 2.092 46 60 34
-46.024 -36.608 2.093 135 136 104
-45.943 -36.479 2.091 65 52 36
-45.855 -36.353 2.090 43 45 34
-45.869 -36.213 2.091 38 50 26
-45.853 -36.077 2.091 36 48 8
-45.319 -36.057 2.083 94 104 77
-45.080 -35.989 2.079 57 64 56
-45.055 -35.873 2.079 13 18 21
-45.047 -35.752 2.080 16 19 24
-45.051 -35.625 2.080 20 23 28
-45.036 -35.502 2.081 150 153 158
-45.018 -35.379 2.081 15 18 23
-44.996 -35.257 2.081 2 7 10
-44.971 -35.134 2.082 7 12 15
-44.942 -35.012 2.082 6 11 14
-44.902 -34.894 2.083 4 9 12
-44.862 -34.775 2.083 16 21 24
-44.816 -34.658 2.083 21 27 27
-44.770 -34.541 2.083 10 12 11
-44.729 -34.418 2.084 15 15 15
-44.688 -34.294 2.084 5 8 13
-44.636 -34.175 2.085 64 69 75
-44.585 -34.055 2.085 54 61 67
-44.533 -33.934 2.086 58 67 72
-44.475 -33.814 2.086 61 72 74
-44.415 -33.695 2.087 39 50 54
-44.350 -33.578 2.087 44 55 61
-44.280 -33.463 2.088 34 44 53
-44.210 -33.348 2.088 35 45 54
-44.136 -33.233 2.089 43 53 63
-44.060 -33.118 2.089 62 72 82
-43.985 -33.001 2.090 55 65 75
-43.908 -32.882 2.091 57 68 74
-43.823 -32.770 2.091 55 66 72
-43.736 -32.657 2.092 55 66 72
-43.646 -32.546 2.092 55 66 72
-43.552 -32.437 2.093 51 65 68
-43.453 -32.333 2.094 48 59 63
-43.352 -32.229 2.094 52 63 67
-43.245 -32.130 2.095 4 13 18
-43.137 -32.032 2.095 52 63 65
-43.024 -31.939 2.096 54 66 66
-42.910 -31.845 2.096 42 54 54
-42.792 -31.754 2.097 57 69 69
-42.673 -31.663 2.097 49 63 63
-42.550 -31.574 2.098 48 62 62
-42.424 -31.492 2.099 48 62 62
-42.295 -31.411 2.099 48 62 62
-42.164 -31.331 2.100 51 65 68
-42.029 -31.258 2.100 47 60 66
-41.891 -31.188 2.101 46 59 67
-41.751 -31.124 2.101 51 64 72
-41.608 -31.064 2.102 56 69 77
-41.462 -31.009 2.102 43 56 64
-41.316 -30.950 2.103 50 63 71
-41.167 -30.899 2.103 48 61 69
-41.016 -30.855 2.104 48 58 60
-40.863 -30.809 2.104 27 35 37
-40.709 -30.770 2.105 18 26 28
-40.552 -30.728 2.105 19 27 29
-40.395 -29.452 2.000 27 25 28
-40.250 -31.260 2.000 18 16 19
-40.332 -35.883 2.000 182 174 172
-40.303 -35.922 2.000 193 188 185
-40.272 -35.917 2.000 171 162 165
-40.241 -35.919 2.000 74 69 65
-40.212 -35.934 2.000 106 89 73
-40.185 -35.955 2.000 138 127 135
-40.159 -35.980 2.000 50 62 78
-40.129 -35.982 2.000 91 104 112
-40.101 -35.993 2.000 74 83 88
-40.073 -35.999 2.000 81 87 87
-40.045 -36.011 2.000 74 81 89
-40.018 -36.023 2.000 70 68 69
-39.992 -36.037 2.000 109 108 103
-39.965 -36.050 2.000 110 102 91
-39.936 -36.056 2.000 247 239 216
-39.909 -36.068 2.000 181 172 157
-39.884 -36.083 2.000 155 142 136
-39.857 -36.095 2.000 139 125 114
-39.831 -36.110 2.000 151 129 116
-39.805 -36.122 2.000 222 198 186
-39.781 -36.139 2.000 156 132 122
-39.757 -36.155 2.000 138 113 106
-39.734 -36.174 2.000 153 115 112
-39.708 -36.188 2.000 216 175 155
-39.691 -36.215 2.000 184 139 136
-39.675 -36.241 2.000 186 133 141
-39.655 -36.262 2.000 188 150 139
-39.635 -36.282 2.000 169 135 126
-39.616 -36.304 2.000 193 158 152
-39.599 -36.327 2.000 126 87 82
-39.582 -36.350 2.000 124 89 87
-39.563 -36.371 2.000 66 60 64
-39.540 -36.388 2.000 255 255 232
-39.510 -36.400 2.000 132 115 123
-39.504 -36.432 2.000 111 114 103
-39.500 -36.465 2.000 195 198 179
-39.490 -36.492 2.000 200 202 188
-39.478 -36.517 2.000 188 194 182
-39.461 -36.539 2.000 199 202 193
-39.450 -36.565 2.000 103 105 100
-39.430 -36.585 2.000 192 180 158
-39.414 -36.607 2.000 198 190 167
-39.403 -36.633 2.000 207 204 197
-39.391 -36.658 2.000 205 201 190
-39.381 -36.683 2.000 211 207 196
-39.370 -36.709 2.000 210 206 195
-39.362 -36.735 2.000 197 193 181
-39.353 -36.761 2.000 215 211 200
-39.349 -36.789 2.000 197 197 189
-39.336 -36.813 2.000 217 219 206
-39.326 -36.839 2.000 247 245 232
-39.318 -36.865 2.000 220 216 205
-39.313 -36.892 2.000 211 207 196
-39.311 -36.920 2.000 200 196 185
-39.310 -36.947 2.000 209 205 193
-39.306 -36.974 2.000 213 213 203
-39.302 -37.001 2.000 211 198 179
-39.302 -37.028 2.000 142 118 106
-39.304 -37.056 2.000 98 95 90
-39.304 -37.082 2.000 103 102 97
-39.304 -37.109 2.000 96 94 95
-39.308 -37.136 2.000 102 102 104
-39.318 -37.163 2.000 99 113 124
-39.322 -37.189 2.000 94 112 122
-39.208 -37.221 2.000 106 117 111
-38.494 -37.303 2.000 47 55 34
-38.419 -37.357 2.000 100 114 89
-38.414 -37.407 2.000 72 87 66
-38.425 -37.455 2.000 64 82 68
-38.446 -37.501 2.000 77 94 88
-38.489 -37.542 2.000 46 58 58
-38.398 -37.611 2.000 90 96 82
-38.335 -37.679 2.000 124 128 93
-38.345 -37.730 2.000 131 139 102
-38.368 -37.778 2.000 107 114 80
-38.390 -37.825 2.000 124 128 93
-38.424 -37.868 2.000 114 113 82
-38.463 -37.908 2.000 117 111 89
-38.502 -37.947 2.000 51 46 40
-38.526 -37.991 2.000 82 74 71
-38.536 -38.042 2.000 149 143 131
-38.551 -38.091 2.000 83 85 71
-38.574 -38.136 2.000 52 59 41
-38.601 -38.179 2.000 75 83 62
-38.627 -38.222 2.000 70 78 54
-38.653 -38.266 2.000 112 121 94
-38.685 -38.305 2.000 59 67 44
-38.718 -38.344 2.000 50 60 23
-38.750 -38.383 2.000 95 105 68
-38.782 -38.421 2.000 52 62 27
-38.814 -38.460 2.000 95 105 55
-38.852 -38.494 2.000 144 152 111
-38.889 -38.527 2.000 107 115 76
-38.931 -38.557 2.000 79 86 52
-38.978 -38.580 2.000 50 57 41
-39.017 -38.609 2.000 49 57 33
-39.054 -38.642 2.000 115 125 90
-39.098 -38.666 2.000 43 53 19
-39.138 -38.694 2.000 106 116 81
-39.178 -38.722 2.000 64 74 40
-39.218 -38.750 2.000 83 92 61
-39.268 -38.762 2.000 127 134 101
-39.337 -38.746 2.000 24 29 9
-39.411 -38.717 2.000 51 56 50
-39.457 -38.726 2.000 20 24 25
-39.493 -38.755 2.000 26 31 27
-39.530 -38.781 2.000 25 29 28
-39.568 -38.805 2.000 45 50 54
-39.605 -38.831 2.000 27 34 27
-39.647 -38.850 2.000 36 38 37
-39.691 -38.862 2.000 15 16 21
-39.733 -38.877 2.000 19 23 24
-39.776 -38.890 2.000 16 22 18
-39.817 -38.912 2.000 47 57 46
-39.704 -39.440 2.000 64 74 49
-39.740 -39.529 2.000 34 43 26
-39.800 -39.538 2.000 73 85 63
-39.858 -39.554 2.000 29 42 22
-39.918 -39.559 2.000 122 138 112
-39.977 -39.568 2.000 78 94 55
-40.037 -39.577 2.000 81 96 63
-40.096 -39.587 2.000 50 65 34
-40.157 -39.575 2.000 119 132 89
-40.231 -39.385 2.000 171 171 147
-40.287 -39.354 2.000 169 155 152
-40.340 -39.387 2.000 172 159 150
-40.395 -39.422 2.000 172 164 151
-40.451 -39.455 2.000 178 170 159
-40.509 -39.496 2.000 175 169 157
-40.569 -39.528 2.000 175 169 155
-40.630 -39.551 2.000 176 168 157
-40.691 -39.568 2.000 177 167 158
-40.754 -39.583 2.000 180 171 162
-40.839 -39.722 2.000 160 161 145
-41.072 -40.569 2.000 57 65 28
-41.164 -40.588 2.000 76 84 60
-41.255 -40.599 2.000 32 44 22
-41.349 -40.611 2.000 174 191 147
-41.427 -40.567 2.000 45 61 25
-41.507 -40.529 2.000 23 30 36
-41.588 -40.499 2.000 28 39 23
-41.669 -40.468 2.000 28 39 22
-41.756 -40.449 2.000 5 24 0
-41.822 -40.383 2.000 88 101 57
-41.796 -40.127 2.000 124 127 108
-41.877 -40.109 2.000 89 88 93
-41.969 -40.108 2.000 10 10 12
-42.056 -40.096 2.000 0 2 1
-42.143 -40.080 2.000 17 23 21
-42.226 -40.055 2.000 17 26 23
-42.308 -40.026 2.000 44 53 52
-42.388 -39.994 2.000 54 59 62
-42.468 -39.959 2.000 30 34 37
-42.541 -39.913 2.000 10 11 15
-42.596 -39.845 2.000 6 5 10
-42.659 -39.788 2.000 20 16 17
-42.735 -39.745 2.000 52 47 41
-42.815 -39.705 2.000 79 70 61
-42.889 -39.658 2.000 64 55 46
-42.972 -39.617 2.000 102 94 81
-43.055 -39.574 2.000 98 92 78
-43.136 -39.528 2.000 75 68 58
-43.213 -39.476 2.000 64 57 51
-43.293 -39.425 2.000 69 61 58
-43.373 -39.372 2.000 75 67 64
-43.455 -39.319 2.000 75 67 64
-43.537 -39.263 2.000 75 70 64
-43.618 -39.204 2.000 77 74 65
-43.700 -39.144 2.000 79 76 67
-43.796 -39.090 2.000 87 84 75
-44.366 -39.286 2.000 118 119 113
-48.061 -41.022 2.000 192 193 188
-48.208 -40.859 2.000 216 216 214
-48.304 -40.669 2.000 208 209 204
-44.420 -38.830 2.000 115 116 111
-44.453 -38.728 2.000 47 46 41
-44.502 -38.633 2.000 46 43 36
-44.548 -38.535 2.000 42 38 35
-44.601 -38.439 2.000 36 37 31
-44.825 -38.389 2.000 34 35 29
-44.911 -38.294 2.000 27 30 23
-44.863 -38.166 2.000 36 41 35
-45.024 -38.084 2.000 19 22 5
-45.738 -38.090 2.000 67 49 39
-45.867 -37.975 2.000 21 19 0
-45.951 -37.848 2.000 108 123 90
-45.959 -37.711 2.000 43 56 36
-45.978 -37.575 2.000 49 55 43
-46.052 -37.441 2.000 29 42 24
-46.103 -37.303 2.000 33 50 14
-46.088 -37.163 2.000 71 89 51
-46.028 -37.025 2.000 56 46 10
-46.021 -36.886 2.000 60 43 15
-46.045 -36.746 2.000 138 148 114
-46.026 -36.608 2.000 73 80 49
-45.956 -36.477 2.000 106 108 84
-45.886 -36.348 2.000 40 46 36
-45.884 -36.210 2.000 55 68 51
-45.901 -36.068 2.000 58 74 29
-45.867 -35.934 2.000 94 109 54
-45.382 -35.914 2.000 5 14 0
-44.998 -35.889 2.000 0 2 0
-44.977 -35.773 2.000 12 14 11
-44.965 -35.653 2.000 0 1 8
-44.948 -35.534 2.000 48 53 57
-44.929 -35.414 2.000 0 1 4
-44.905 -35.294 2.000 52 56 55
-44.884 -35.173 2.000 48 50 47
-44.859 -35.051 2.000 64 65 67
-44.832 -34.929 2.000 69 70 74
-44.800 -34.808 2.000 34 35 39
-44.770 -34.684 2.000 50 54 55
-44.741 -34.558 2.000 47 53 49
-44.707 -34.432 2.000 69 70 65
-44.668 -34.307 2.000 21 26 30
-44.623 -34.185 2.000 52 61 68
-44.575 -34.063 2.000 61 72 76
-44.523 -33.941 2.000 55 70 73
-44.468 -33.820 2.000 57 72 77
-44.409 -33.700 2.000 53 66 72
-44.347 -33.580 2.000 46 61 68
-44.283 -33.461 2.000 55 69 78
-44.215 -33.342 2.000 52 63 69
-44.142 -33.227 2.000 55 64 71
-44.066 -33.112 2.000 44 53 60
-43.990 -32.994 2.000 57 66 73
-43.912 -32.877 2.000 60 71 75
-43.827 -32.764 2.000 56 67 71
-43.741 -32.651 2.000 54 65 69
-43.649 -32.541 2.000 54 65 71
-43.554 -32.434 2.000 54 67 73
-43.455 -32.329 2.000 49 63 66
-43.355 -32.224 2.000 54 66 66
-43.249 -32.124 2.000 50 62 60
-43.141 -32.025 2.000 50 62 62
-43.026 -31.935 2.000 52 63 65
-42.912 -31.840 2.000 51 62 64
-42.793 -31.751 2.000 62 74 74
-42.673 -31.663 2.000 44 58 59
-42.550 -31.576 2.000 51 61 60
-42.424 -31.491 2.000 51 60 59
-42.295 -31.411 2.000 55 65 66
-42.163 -31.332 2.000 46 56 57
-42.030 -31.254 2.000 53 64 68
-41.892 -31.187 2.000 45 60 67
-41.751 -31.123 2.000 57 72 79
-41.608 -31.064 2.000 236 253 255
-41.463 -31.004 2.000 38 55 65
-41.316 -30.948 2.000 45 58 66
-41.167 -30.896 2.000 49 58 65
-41.016 -30.850 2.000 49 60 64
-40.864 -30.803 2.000 37 47 49
-40.709 -30.763 2.000 4 12 14
-40.553 -30.726 2.000 19 25 25
-40.395 -29.203 1.870 17 18 20
-40.200 -29.220 1.870 27 25 26
-40.006 -29.263 1.871 22 17 21
-39.813 -29.283 1.871 13 13 15
-39.621 -29.307 1.871 13 13 13
-39.433 -29.368 1.871 22 23 25
-39.537 -31.382 1.904 22 33 35
-40.179 -35.923 1.979 16 69 103
-40.153 -35.949 1.980 36 102 163
-40.123 -35.955 1.980 33 93 156
-40.095 -35.967 1.980 36 96 158
-40.066 -35.978 1.980 35 93 156
-40.040 -35.994 1.980 29 90 157
-40.013 -36.008 1.980 32 92 155
-39.987 -36.025 1.980 37 97 159
-39.959 -36.035 1.980 66 101 141
-39.931 -36.045 1.980 240 236 225
-39.904 -36.057 1.980 178 166 152
-39.879 -36.073 1.980 138 127 121
-39.851 -36.084 1.980 119 110 101
-39.825 -36.097 1.980 104 101 86
-39.799 -36.111 1.980 146 142 130
-39.774 -36.128 1.980 112 108 97
-39.750 -36.146 1.980 112 108 99
-39.727 -36.164 1.980 93 95 84
-39.701 -36.179 1.980 228 233 210
-39.684 -36.205 1.980 122 125 114
-39.667 -36.231 1.981 104 105 99
-39.648 -36.253 1.981 141 139 127
-39.628 -36.275 1.981 113 109 100
-39.610 -36.298 1.981 164 156 153
-39.592 -36.320 1.981 121 112 113
-39.576 -36.344 1.981 134 123 117
-39.557 -36.366 1.981 140 130 138
-39.532 -36.381 1.981 245 235 208
-39.517 -36.406 1.981 132 104 103
-39.503 -36.431 1.981 148 130 130
-39.495 -36.461 1.981 146 124 127
-39.483 -36.487 1.981 187 156 161
-39.471 -36.513 1.982 174 142 143
-39.455 -36.535 1.982 175 138 132
-39.443 -36.560 1.982 179 149 149
-39.421 -36.580 1.981 214 190 166
-39.406 -36.603 1.981 197 194 175
-39.396 -36.629 1.981 195 195 187
-39.384 -36.654 1.981 212 208 197
-39.373 -36.680 1.982 226 222 211
-39.361 -36.705 1.982 212 208 197
-39.352 -36.731 1.982 202 198 186
-39.346 -36.759 1.982 210 206 197
-39.342 -36.786 1.982 209 206 199
-39.329 -36.811 1.982 217 217 205
-39.317 -36.836 1.982 215 213 200
-39.310 -36.863 1.982 224 220 208
-39.305 -36.890 1.982 219 215 203
-39.302 -36.918 1.982 236 232 220
-39.300 -36.945 1.982 210 200 188
-39.298 -36.973 1.982 214 217 206
-39.294 -37.000 1.982 201 203 179
-39.293 -37.027 1.982 149 147 124
-39.294 -37.054 1.982 186 182 170
-39.294 -37.082 1.982 192 186 174
-39.294 -37.109 1.982 176 167 158
-39.298 -37.136 1.982 150 139 133
-39.304 -37.163 1.982 131 114 106
-39.301 -37.190 1.982 162 148 137
-39.233 -37.220 1.981 138 128 116
-39.059 -37.261 1.978 93 87 71
-39.068 -37.294 1.978 83 77 65
-39.052 -37.329 1.978 97 91 75
-39.038 -37.364 1.978 61 58 43
-39.050 -37.396 1.978 112 109 100
-39.063 -37.428 1.978 83 79 76
-38.569 -37.573 1.969 62 59 42
-38.329 -37.680 1.965 112 109 74
-38.347 -37.730 1.965 108 107 76
-38.373 -37.776 1.965 119 122 95
-38.398 -37.822 1.966 79 79 51
-38.436 -37.864 1.966 108 107 79
-38.481 -37.901 1.966 101 94 75
-38.524 -37.938 1.967 151 147 138
-38.551 -37.980 1.967 109 104 98
-38.570 -38.026 1.967 34 29 25
-38.592 -38.070 1.967 66 65 60
-38.609 -38.117 1.967 64 66 55
-38.629 -38.163 1.967 93 94 80
-38.648 -38.209 1.967 76 79 62
-38.669 -38.255 1.967 89 93 76
-38.700 -38.295 1.967 36 42 28
-38.729 -38.336 1.967 129 138 111
-38.765 -38.371 1.967 47 55 31
-38.794 -38.412 1.967 122 130 107
-38.827 -38.450 1.967 95 101 75
-38.875 -38.474 1.967 14 17 10
-38.920 -38.499 1.967 27 30 19
-38.957 -38.532 1.968 20 24 9
-38.996 -38.562 1.968 75 80 74
-39.030 -38.596 1.968 74 80 66
-39.061 -38.634 1.968 104 113 84
-39.101 -38.663 1.968 149 158 131
-39.138 -38.693 1.968 93 102 71
-39.180 -38.719 1.968 60 69 40
-39.220 -38.747 1.968 80 89 62
-39.266 -38.766 1.968 99 108 77
-39.345 -38.733 1.969 96 102 88
-39.417 -38.706 1.970 33 34 39
-39.458 -38.726 1.970 40 41 46
-39.486 -38.766 1.970 127 128 114
-39.523 -38.794 1.970 47 49 27
-39.566 -38.809 1.970 26 28 27
-39.607 -38.829 1.970 12 20 22
-39.649 -38.844 1.970 21 26 29
-39.692 -38.858 1.970 41 41 49
-39.730 -38.885 1.970 21 25 26
-39.651 -39.241 1.964 61 68 61
-39.646 -39.428 1.961 53 64 48
-39.686 -39.499 1.960 34 45 31
-39.741 -39.525 1.960 59 68 67
-39.799 -39.541 1.960 85 96 80
-39.857 -39.558 1.960 132 145 117
-39.916 -39.567 1.960 7 19 7
-39.975 -39.582 1.960 56 70 45
-40.035 -39.586 1.960 91 104 84
-40.096 -39.584 1.960 18 30 16
-40.156 -39.585 1.960 15 28 0
-40.223 -39.484 1.962 135 137 113
-40.286 -39.366 1.964 167 160 142
-40.340 -39.395 1.963 171 159 147
-40.395 -39.431 1.963 172 164 151
-40.451 -39.465 1.962 171 165 151
-40.510 -39.505 1.962 174 168 154
-40.570 -39.536 1.961 174 168 154
-40.630 -39.556 1.961 174 168 154
-40.692 -39.571 1.960 175 167 156
-40.754 -39.585 1.960 163 155 144
-40.847 -39.773 1.957 163 164 146
-41.073 -40.572 1.943 158 165 134
-41.162 -40.582 1.943 65 72 56
-41.249 -40.575 1.942 44 54 46
-41.342 -40.585 1.942 101 116 85
-41.429 -40.573 1.942 163 181 123
-41.507 -40.531 1.942 44 56 34
-41.587 -40.496 1.942 124 136 116
-41.668 -40.465 1.942 23 33 25
-41.758 -40.454 1.942 132 150 112
-41.830 -40.401 1.942 140 154 119
-41.783 -40.100 1.947 41 43 38
-41.859 -40.072 1.947 16 16 24
-41.938 -40.050 1.946 0 0 4
-42.013 -40.019 1.946 5 6 11
-42.086 -39.984 1.946 16 17 22
-42.158 -39.947 1.946 11 14 19
-42.229 -39.908 1.946 9 12 17
-42.301 -39.870 1.946 10 13 18
-42.366 -39.821 1.946 10 13 18
-42.434 -39.776 1.946 6 9 14
-42.510 -39.741 1.945 41 42 47
-42.597 -39.717 1.945 55 54 52
-42.710 -39.718 1.944 114 110 101
-42.803 -39.693 1.943 113 103 93
-42.885 -39.653 1.942 92 82 72
-42.971 -39.616 1.942 129 122 106
-43.052 -39.572 1.941 116 110 94
-43.134 -39.526 1.941 88 84 73
-43.211 -39.474 1.940 88 85 80
-43.292 -39.424 1.940 93 90 85
-43.372 -39.371 1.939 94 91 86
-43.454 -39.318 1.939 95 92 87
-43.536 -39.262 1.938 98 95 88
-43.617 -39.203 1.938 101 98 91
-43.698 -39.143 1.937 105 102 95
-43.793 -39.088 1.936 107 104 97
-44.648 -39.437 1.921 121 120 115
-48.066 -41.025 1.859 182 183 178
-48.210 -40.859 1.859 201 202 197
-48.299 -40.667 1.859 217 218 213
-44.374 -38.811 1.930 129 131 128
-44.403 -38.709 1.930 61 58 53
-44.447 -38.613 1.930 56 49 43
-44.489 -38.515 1.929 46 42 39
-44.530 -38.417 1.929 39 38 34
-44.565 -38.317 1.929 34 35 30
-44.591 -38.214 1.929 31 33 28
-44.624 -38.113 1.929 36 41 37
-44.659 -38.011 1.929 25 33 20
-44.760 -37.920 1.928 40 35 32
-45.560 -37.929 1.915 84 89 67
-45.959 -37.849 1.908 115 128 98
-45.933 -37.708 1.909 45 58 40
-45.945 -37.572 1.909 31 34 27
-46.014 -37.439 1.908 15 28 18
-46.073 -37.302 1.907 19 34 11
-46.091 -37.163 1.907 0 22 0
-46.070 -37.024 1.907 54 49 11
-46.035 -36.886 1.908 94 79 56
-46.026 -36.747 1.908 52 61 40
-46.010 -36.610 1.908 58 67 50
-45.972 -36.475 1.908 77 87 62
-45.903 -36.346 1.909 40 51 35
-45.879 -36.211 1.909 40 50 41
-45.880 -36.072 1.908 15 28 11
-45.843 -35.940 1.909 70 86 49
-45.721 -35.829 1.910 85 100 61
-45.428 -35.770 1.915 96 107 75
-45.110 -35.733 1.919 146 152 126
-44.936 -35.663 1.922 93 98 94
-44.918 -35.545 1.921 21 28 21
-44.902 -35.424 1.921 76 86 78
-44.885 -35.303 1.920 69 73 74
-44.866 -35.181 1.920 73 74 76
-44.845 -35.058 1.919 94 95 97
-44.819 -34.936 1.919 59 61 60
-44.791 -34.813 1.918 96 96 98
-44.760 -34.690 1.918 93 97 96
-44.731 -34.564 1.917 61 66 62
-44.697 -34.438 1.917 88 89 83
-44.669 -34.307 1.916 29 29 27
-44.624 -34.184 1.915 82 86 85
-44.577 -34.061 1.915 58 67 66
-44.526 -33.938 1.914 54 66 66
-44.474 -33.815 1.914 58 66 68
-44.413 -33.697 1.913 65 73 75
-44.349 -33.579 1.913 55 65 67
-44.284 -33.459 1.912 65 74 79
-44.216 -33.341 1.912 59 70 72
-44.144 -33.225 1.911 48 59 61
-44.070 -33.107 1.910 54 65 67
-43.993 -32.992 1.910 57 68 70
-43.914 -32.875 1.909 54 68 69
-43.828 -32.763 1.909 52 66 69
-43.741 -32.651 1.908 51 64 70
-43.649 -32.542 1.908 53 66 74
-43.554 -32.435 1.907 57 72 75
-43.456 -32.328 1.906 188 204 204
-43.355 -32.223 1.906 53 63 64
-43.250 -32.122 1.905 56 65 62
-43.141 -32.024 1.905 55 61 59
-43.028 -31.931 1.904 64 70 68
-42.914 -31.836 1.904 87 93 91
-42.795 -31.748 1.903 59 65 63
-42.676 -31.656 1.902 52 61 60
-42.549 -31.576 1.902 50 52 47
-42.427 -31.483 1.901 103 101 89
-42.297 -31.404 1.901 100 98 86
-42.165 -31.328 1.900 96 96 88
-42.030 -31.254 1.900 105 107 104
-41.892 -31.183 1.899 57 66 65
-41.751 -31.120 1.899 61 66 62
-41.608 -31.063 1.898 47 56 61
-41.464 -31.000 1.898 46 56 65
-41.317 -30.947 1.897 55 68 76
-41.168 -30.895 1.897 41 54 62
-41.016 -30.848 1.896 44 55 59
-40.864 -30.799 1.896 38 48 49
-40.709 -30.755 1.895 21 30 29
-40.553 -30.716 1.894 19 25 25
-40.395 -29.206 1.740 26 22 21
-40.199 -29.210 1.740 49 38 36
-40.005 -29.244 1.740 56 41 38
-39.813 -29.278 1.741 37 28 29
-39.621 -29.309 1.742 7 13 11
-39.433 -29.367 1.743 23 27 38
-39.245 -29.415 1.744 39 28 44
-39.908 -34.357 1.907 75 75 103
-40.151 -35.938 1.959 67 91 135
-40.119 -35.934 1.959 62 93 140
-40.089 -35.945 1.959 59 92 145
-40.061 -35.957 1.959 55 92 147
-40.035 -35.976 1.959 46 97 154
-40.008 -35.993 1.960 45 99 159
-39.982 -36.010 1.960 43 101 165
-39.953 -36.019 1.960 92 122 158
-39.926 -36.031 1.960 242 234 215
-39.898 -36.042 1.960 250 234 208
-39.871 -36.055 1.960 254 240 214
-39.843 -36.067 1.960 252 240 214
-39.815 -36.078 1.960 250 238 214
-39.789 -36.094 1.960 253 241 215
-39.764 -36.111 1.960 250 238 214
-39.740 -36.129 1.960 247 235 211
-39.717 -36.149 1.960 255 238 215
-39.694 -36.168 1.960 255 233 214
-39.677 -36.195 1.961 255 239 222
-39.661 -36.223 1.961 255 245 230
-39.641 -36.245 1.961 255 248 231
-39.623 -36.268 1.961 245 238 220
-39.606 -36.293 1.962 223 217 203
-39.589 -36.317 1.962 195 191 182
-39.572 -36.341 1.962 164 168 153
-39.554 -36.363 1.962 140 125 120
-39.532 -36.381 1.962 161 175 176
-39.519 -36.408 1.962 42 70 107
-39.500 -36.429 1.962 185 195 194
-39.490 -36.457 1.962 92 110 122
-39.477 -36.482 1.963 131 139 150
-39.463 -36.507 1.963 122 120 123
-39.448 -36.530 1.963 107 112 116
-39.433 -36.554 1.963 118 118 126
-39.411 -36.574 1.962 255 245 223
-39.400 -36.599 1.963 214 208 192
-39.390 -36.626 1.963 202 199 192
-39.378 -36.651 1.963 207 203 192
-39.367 -36.677 1.963 208 204 193
-39.355 -36.702 1.963 210 206 195
-39.346 -36.729 1.963 196 194 181
-39.340 -36.756 1.963 204 200 191
-39.333 -36.783 1.963 208 203 197
-39.319 -36.808 1.963 214 210 199
-39.309 -36.833 1.963 211 207 195
-39.301 -36.860 1.963 196 192 180
-39.297 -36.888 1.963 218 214 202
-39.293 -36.916 1.963 254 250 238
-39.292 -36.944 1.963 243 240 225
-39.291 -36.971 1.963 209 213 199
-39.285 -36.998 1.963 185 178 159
-39.282 -37.026 1.963 209 187 174
-39.282 -37.053 1.963 193 190 173
-39.281 -37.081 1.963 206 208 187
-39.283 -37.108 1.964 191 190 172
-39.288 -37.136 1.964 105 102 87
-39.289 -37.163 1.964 151 142 125
-39.279 -37.190 1.963 88 80 59
-39.219 -37.221 1.961 148 142 118
-39.146 -37.255 1.959 101 95 79
-39.179 -37.283 1.960 120 122 108
-39.178 -37.313 1.960 77 82 62
-39.182 -37.343 1.960 74 80 54
-39.190 -37.372 1.960 100 104 81
-39.201 -37.400 1.960 75 67 64
-38.939 -37.490 1.951 75 68 60
-38.383 -37.667 1.932 79 77 62
-38.393 -37.717 1.932 125 125 113
-38.404 -37.767 1.932 99 97 82
-38.426 -37.813 1.932 95 93 70
-38.464 -37.854 1.933 75 70 48
-38.508 -37.891 1.934 42 36 20
-38.540 -37.931 1.934 67 64 49
-38.568 -37.973 1.935 77 77 69
-38.598 -38.013 1.935 43 42 40
-38.629 -38.052 1.935 53 49 46
-38.652 -38.094 1.935 128 120 109
-38.670 -38.140 1.935 99 91 78
-38.687 -38.186 1.935 78 74 62
-38.708 -38.231 1.935 47 47 35
-38.732 -38.274 1.935 83 87 73
-38.761 -38.314 1.935 77 82 59
-38.802 -38.344 1.935 27 30 19
-38.837 -38.379 1.935 57 60 51
-38.872 -38.412 1.936 104 107 96
-38.916 -38.438 1.936 32 33 37
-38.954 -38.469 1.936 37 39 34
