ply
format ascii 1.0
element vertex 1451
property float x
property float y
property float z
property uchar red
property uchar green
property uchar blue
end_header
-53.173 -35.378 4.007 151 151 151
-53.282 -35.385 4.022 67 67 75
-53.394 -35.397 4.041 65 68 77
-53.508 -35.406 4.060 79 82 87
-53.625 -35.420 4.083 105 101 102
-53.745 -35.436 4.108 137 128 119
-53.894 -35.518 4.169 174 164 155
-54.062 -35.629 4.248 181 172 163
-54.194 -35.639 4.277 180 172 159
-54.320 -35.629 4.297 175 168 149
-54.447 -35.615 4.317 173 166 150
-54.575 -35.600 4.339 177 170 160
-54.693 -35.562 4.350 178 171 161
-54.780 -35.471 4.334 85 77 64
-54.859 -35.368 4.312 95 88 70
-54.956 -35.298 4.309 90 83 65
-55.061 -35.239 4.315 93 86 68
-55.176 -35.193 4.329 109 102 86
-55.295 -35.149 4.346 123 116 100
-55.416 -35.104 4.365 130 125 106
-55.540 -35.060 4.387 144 138 124
-55.727 -35.082 4.453 98 92 80
-56.086 -35.274 4.635 175 169 153
-56.226 -35.220 4.663 180 174 158
-56.354 -35.152 4.684 180 174 160
-56.482 -35.079 4.705 179 173 159
-56.600 -34.996 4.721 177 171 159
-56.709 -34.903 4.732 176 172 160
-56.821 -34.811 4.746 176 173 166
-56.918 -34.705 4.753 18 16 19
-57.055 -34.627 4.783 16 16 18
-57.198 -34.549 4.818 86 87 91
-57.322 -34.454 4.843 105 108 113
-57.456 -34.362 4.874 93 96 103
-57.582 -34.263 4.902 78 81 90
-57.706 -34.158 4.930 66 73 79
-57.832 -34.051 4.959 40 47 55
-57.955 -33.940 4.988 113 120 128
-58.070 -33.821 5.014 8 12 23
-58.189 -33.701 5.044 140 136 137
-58.358 -33.597 5.100 169 163 151
-58.478 -33.469 5.132 175 168 149
-58.584 -33.333 5.158 175 168 152
-58.687 -33.193 5.185 175 168 152
-58.787 -33.049 5.211 175 168 150
-58.877 -32.900 5.234 175 168 150
-58.960 -32.747 5.256 168 161 143
-59.036 -32.589 5.275 180 171 156
-59.107 -32.429 5.295 137 120 102
-59.177 -32.267 5.315 146 126 102
-59.234 -32.101 5.331 87 74 57
-59.273 -31.931 5.341 82 70 54
-59.285 -31.758 5.339 71 59 43
-59.271 -31.584 5.328 73 61 47
-59.263 -31.411 5.321 75 63 51
-59.258 -31.238 5.318 74 60 47
-59.260 -31.066 5.319 72 59 43
-59.268 -30.893 5.326 67 54 38
-59.282 -30.719 5.338 71 58 42
-59.300 -30.543 5.354 81 65 49
-59.323 -30.365 5.374 84 68 52
-59.352 -30.184 5.399 90 74 58
-59.360 -30.004 5.416 94 78 62
-59.385 -29.818 5.444 95 82 66
-59.585 -29.590 5.559 151 139 123
-59.920 -29.316 5.743 168 156 140
-59.925 -29.113 5.770 168 156 140
-59.923 -28.909 5.796 167 159 140
-59.914 -28.704 5.821 166 158 139
-59.899 -28.499 5.846 165 157 138
-59.874 -28.295 5.868 163 155 136
-59.838 -28.093 5.888 162 147 126
-59.789 -27.894 5.904 139 124 101
-59.753 -27.687 5.929 163 148 127
-59.689 -27.491 5.942 154 141 122
-59.589 -27.312 5.939 149 136 117
-59.467 -27.146 5.926 149 137 121
-59.231 -27.050 5.853 80 76 65
-59.068 -26.917 5.820 39 39 37
-58.977 -26.739 5.830 22 24 21
-58.902 -26.549 5.852 24 26 23
-58.829 -26.354 5.878 34 36 33
-58.748 -26.162 5.902 37 39 36
-58.661 -25.972 5.926 41 43 38
-58.569 -25.782 5.951 42 44 39
-58.474 -25.591 5.977 44 46 41
-58.373 -25.403 6.003 43 45 40
-58.272 -25.210 6.032 44 44 42
-58.171 -25.013 6.066 33 33 31
-58.057 -24.824 6.094 45 45 43
-57.941 -24.634 6.125 35 35 33
-57.915 -24.328 6.228 16 18 15
-57.819 -24.095 6.286 24 26 23
-57.685 -23.901 6.321 24 26 23
-57.534 -23.726 6.346 88 90 87
-57.388 -23.539 6.380 89 93 92
-57.240 -23.349 6.417 105 111 111
-57.070 -23.186 6.440 53 57 56
-56.904 -23.012 6.472 12 9 0
-56.795 -22.724 6.566 153 142 124
-56.618 -22.548 6.602 155 143 121
-56.430 -22.386 6.631 157 145 123
-56.235 -22.233 6.659 157 145 123
-56.035 -22.085 6.686 157 145 123
-55.827 -21.947 6.710 157 145 123
-55.617 -21.811 6.736 157 145 123
-55.399 -21.687 6.758 156 144 122
-55.176 -21.570 6.778 155 142 123
-54.950 -21.460 6.799 154 141 122
-54.720 -21.353 6.820 155 142 123
-54.486 -21.251 6.841 155 142 123
-54.249 -21.156 6.862 155 140 121
-54.008 -21.067 6.882 156 141 122
-53.764 -20.991 6.900 152 137 118
-53.516 -20.923 6.916 132 117 98
-53.263 -20.890 6.918 123 108 87
-53.005 -20.914 6.897 64 54 42
-52.752 -20.890 6.900 80 77 72
-52.499 -20.840 6.920 55 55 47
-51.426 -33.084 2.915 229 222 216
-51.472 -33.101 2.913 237 228 219
-51.515 -33.127 2.917 232 227 221
-49.790 -38.666 5.544 186 181 175
-50.898 -35.674 4.100 175 169 155
-51.367 -34.406 3.489 183 177 163
-51.436 -34.463 3.506 185 177 166
-51.510 -34.506 3.517 179 170 161
-51.584 -34.555 3.532 190 182 171
-51.662 -34.588 3.541 109 101 90
-51.741 -34.629 3.553 112 104 93
-51.823 -34.650 3.558 106 98 87
-51.890 -34.828 3.634 186 176 166
-51.971 -34.931 3.678 145 137 124
-52.060 -34.978 3.696 180 174 162
-52.151 -34.993 3.702 173 168 164
-52.244 -34.985 3.698 111 107 104
-52.334 -34.922 3.669 61 60 58
-52.426 -34.944 3.681 60 60 60
-52.520 -34.979 3.700 19 21 20
-52.615 -35.006 3.715 24 23 21
-52.743 -35.290 3.850 170 163 157
-52.854 -35.352 3.884 184 174 164
-52.961 -35.375 3.902 182 174 163
-53.070 -35.395 3.920 169 166 159
-53.183 -35.421 3.942 156 155 153
-53.291 -35.420 3.953 57 58 62
-53.401 -35.422 3.967 53 56 61
-53.521 -35.449 3.994 120 112 109
-53.646 -35.484 4.026 160 146 137
-53.772 -35.509 4.055 160 142 128
-53.910 -35.558 4.098 165 151 138
-54.076 -35.661 4.169 183 173 163
-54.210 -35.674 4.199 180 172 159
-54.337 -35.664 4.218 176 169 150
-54.465 -35.651 4.238 172 165 149
-54.593 -35.634 4.258 173 166 156
-54.710 -35.593 4.268 177 170 160
-54.801 -35.505 4.254 115 107 94
-54.876 -35.395 4.229 105 98 80
-54.969 -35.318 4.223 104 97 79
-55.075 -35.259 4.228 101 94 78
-55.193 -35.215 4.243 116 108 95
-55.310 -35.168 4.258 133 125 114
-55.438 -35.131 4.282 134 130 118
-55.570 -35.094 4.307 108 105 96
-55.745 -35.101 4.362 51 44 36
-56.110 -35.300 4.541 178 170 157
-56.253 -35.248 4.569 180 174 160
-56.384 -35.181 4.591 180 174 160
-56.515 -35.110 4.612 179 173 159
-56.635 -35.026 4.627 177 171 157
-56.748 -34.935 4.640 172 168 156
-56.867 -34.847 4.657 191 188 181
-56.978 -34.750 4.671 120 118 121
-57.097 -34.657 4.690 69 69 71
-57.231 -34.571 4.718 139 140 145
-57.364 -34.481 4.746 114 117 124
-57.493 -34.385 4.773 81 84 93
-57.623 -34.286 4.801 136 138 150
-57.750 -34.182 4.829 10 13 20
-57.876 -34.073 4.857 91 94 99
-58.004 -33.963 4.887 56 59 64
-58.123 -33.845 4.914 63 64 69
-58.241 -33.722 4.941 99 92 86
-58.408 -33.616 4.994 171 161 149
-58.528 -33.487 5.024 177 170 152
-58.632 -33.349 5.049 175 168 152
-58.733 -33.207 5.072 171 164 146
-58.835 -33.062 5.099 174 167 149
-58.928 -32.913 5.122 174 167 149
-59.012 -32.758 5.143 135 128 110
-59.089 -32.600 5.163 144 135 120
-59.153 -32.437 5.178 75 63 47
-59.180 -32.267 5.177 63 49 36
-59.170 -32.093 5.162 60 51 44
-59.166 -31.920 5.152 59 50 41
-59.164 -31.749 5.144 62 52 43
-59.167 -31.579 5.141 51 41 32
-59.178 -31.409 5.143 56 46 36
-59.205 -31.238 5.154 59 45 34
-59.227 -31.067 5.165 68 54 41
-59.261 -30.894 5.184 75 62 46
-59.303 -30.718 5.207 83 70 53
-59.336 -30.540 5.229 91 75 59
-59.366 -30.360 5.251 95 79 63
-59.392 -30.178 5.274 101 85 69
-59.404 -29.996 5.293 104 88 72
-59.429 -29.809 5.320 102 90 74
-59.587 -29.589 5.410 110 101 84
-59.974 -29.302 5.611 165 156 139
-59.979 -29.098 5.636 166 157 140
-59.977 -28.892 5.662 167 159 140
-59.969 -28.686 5.686 167 159 140
-59.954 -28.479 5.711 166 158 139
-59.930 -28.274 5.733 166 158 139
-59.898 -28.068 5.754 158 143 122
-59.848 -27.867 5.769 125 110 87
-59.808 -27.661 5.791 164 149 128
-59.745 -27.462 5.805 157 144 125
-59.647 -27.281 5.804 148 136 114
-59.529 -27.111 5.794 140 129 111
-59.314 -27.000 5.735 84 80 69
-59.130 -26.877 5.693 45 46 41
-59.031 -26.703 5.698 23 25 22
-58.954 -26.513 5.719 26 28 25
-58.877 -26.319 5.742 37 39 36
-58.796 -26.125 5.766 39 41 38
-58.709 -25.932 5.790 41 43 40
-58.618 -25.740 5.814 42 44 41
-58.520 -25.550 5.838 41 43 40
-58.418 -25.359 5.863 45 47 44
-58.316 -25.166 5.891 42 42 40
-58.308 -24.869 5.985 24 24 22
-58.255 -24.606 6.056 21 21 19
-58.152 -24.389 6.099 29 29 27
-58.026 -24.192 6.130 81 83 82
-57.904 -23.985 6.169 67 69 68
-57.767 -23.791 6.201 104 106 105
-57.613 -23.615 6.225 76 78 77
-57.461 -23.430 6.255 96 98 95
-57.298 -23.256 6.281 152 154 153
-57.126 -23.092 6.303 71 71 69
-56.950 -22.930 6.326 51 44 38
-56.816 -22.684 6.395 161 148 131
-56.646 -22.493 6.436 150 138 116
-56.459 -22.326 6.467 156 144 122
-56.262 -22.172 6.493 157 145 123
-56.061 -22.022 6.520 157 145 123
-55.853 -21.881 6.544 157 145 123
-55.639 -21.750 6.566 156 144 122
-55.419 -21.626 6.587 156 144 122
-55.195 -21.508 6.607 155 142 123
-54.968 -21.394 6.628 155 142 123
-54.736 -21.287 6.648 155 142 123
-54.501 -21.184 6.669 155 142 123
-54.262 -21.089 6.689 156 141 122
-54.020 -21.002 6.707 157 142 123
-53.774 -20.921 6.726 151 136 117
-53.524 -20.855 6.740 132 117 98
-53.270 -20.815 6.746 122 106 90
-53.012 -20.823 6.732 72 60 46
-52.756 -20.802 6.734 66 60 48
-52.503 -20.678 6.786 128 122 106
-51.058 -33.746 3.203 180 173 163
-51.077 -33.871 3.248 237 222 203
-51.078 -34.053 3.321 249 231 207
-51.132 -34.119 3.338 249 236 217
-51.192 -34.178 3.353 178 172 158
-49.760 -38.758 5.433 193 184 175
-50.858 -35.804 4.069 178 168 159
-51.357 -34.441 3.441 186 175 169
-51.434 -34.469 3.444 174 165 156
-51.512 -34.496 3.447 151 142 133
-51.587 -34.541 3.460 119 111 100
-51.667 -34.564 3.463 99 91 80
-51.744 -34.606 3.476 102 94 83
-51.824 -34.637 3.484 102 94 83
-51.888 -34.844 3.571 190 180 170
-51.969 -34.960 3.618 149 141 128
-52.058 -35.007 3.636 183 177 165
-52.151 -35.025 3.642 176 171 167
-52.244 -35.019 3.639 148 144 143
-52.335 -34.969 3.618 52 51 49
-52.428 -34.992 3.629 78 76 77
-52.523 -35.027 3.647 78 73 77
-52.620 -35.061 3.665 62 58 59
-52.748 -35.326 3.786 183 176 170
-52.859 -35.385 3.817 183 173 163
-52.967 -35.409 3.835 183 175 164
-53.077 -35.428 3.852 170 167 160
-53.190 -35.451 3.872 163 159 156
-53.297 -35.444 3.880 57 52 48
-53.413 -35.466 3.901 110 101 92
-53.537 -35.502 3.932 150 133 123
-53.663 -35.534 3.961 156 137 123
-53.787 -35.553 3.987 150 131 116
-53.911 -35.561 4.009 55 41 28
-54.089 -35.694 4.091 181 172 163
-54.224 -35.707 4.119 179 171 158
-54.352 -35.697 4.138 176 169 150
-54.482 -35.685 4.158 171 164 148
-54.610 -35.666 4.176 175 168 158
-54.722 -35.614 4.180 176 169 159
-54.821 -35.538 4.173 134 126 113
-54.897 -35.428 4.150 116 109 91
-54.988 -35.345 4.141 109 102 83
-55.093 -35.284 4.145 108 101 85
-55.210 -35.238 4.159 125 117 106
-55.334 -35.198 4.178 21 12 5
-55.464 -35.163 4.201 96 96 88
-55.596 -35.125 4.225 128 127 122
-55.752 -35.110 4.265 45 40 34
-56.138 -35.329 4.449 181 173 162
-56.283 -35.277 4.476 180 174 162
-56.415 -35.210 4.497 180 174 162
-56.548 -35.140 4.518 179 173 159
-56.672 -35.058 4.535 177 171 155
-56.790 -34.969 4.550 177 174 159
-56.909 -34.880 4.566 184 181 174
-57.025 -34.785 4.581 99 97 100
-57.142 -34.688 4.597 121 121 123
-57.271 -34.598 4.621 136 137 141
-57.404 -34.506 4.648 98 102 105
-57.533 -34.409 4.674 59 62 67
-57.664 -34.309 4.701 129 132 139
-57.791 -34.204 4.727 0 2 9
-57.918 -34.095 4.754 130 129 134
-58.049 -33.984 4.784 93 88 84
-58.171 -33.866 4.811 107 97 87
-58.292 -33.744 4.838 138 125 109
-58.450 -33.632 4.884 173 161 145
-58.575 -33.504 4.915 170 161 146
-58.680 -33.365 4.938 171 164 146
-58.782 -33.222 4.962 164 157 139
-58.886 -33.076 4.988 131 124 106
-58.978 -32.925 5.010 183 176 158
-59.060 -32.769 5.029 170 163 145
-59.131 -32.608 5.044 156 143 124
-59.180 -32.442 5.052 150 137 121
-59.162 -32.265 5.032 71 61 52
-59.094 -32.083 4.992 41 33 30
-59.081 -31.912 4.979 43 33 32
-59.101 -31.744 4.981 45 35 33
-59.129 -31.577 4.989 48 39 34
-59.173 -31.409 5.005 50 41 34
-59.215 -31.238 5.022 63 50 41
-59.255 -31.066 5.041 69 55 44
-59.297 -30.892 5.061 83 70 54
-59.339 -30.715 5.084 91 78 59
-59.376 -30.536 5.107 95 82 65
-59.406 -30.355 5.129 101 88 71
-59.435 -30.172 5.152 106 93 76
-59.454 -29.987 5.173 109 96 79
-59.476 -29.800 5.197 108 99 82
-59.562 -29.595 5.252 115 108 90
-60.022 -29.290 5.476 164 157 139
-60.029 -29.084 5.502 165 158 140
-60.027 -28.877 5.526 167 159 140
-60.021 -28.669 5.551 167 159 140
-60.008 -28.460 5.575 167 159 140
-59.984 -28.253 5.597 164 156 137
-59.954 -28.044 5.618 163 148 127
-59.907 -27.842 5.634 118 103 80
-59.860 -27.636 5.653 163 148 127
-59.799 -27.435 5.667 158 145 126
-59.705 -27.250 5.668 147 135 113
-59.591 -27.076 5.661 138 127 109
-59.404 -26.947 5.619 81 77 65
-59.193 -26.838 5.566 43 44 38
-59.085 -26.667 5.567 28 30 27
-59.005 -26.476 5.585 27 29 26
-58.930 -26.279 5.609 35 37 34
-58.847 -26.085 5.631 37 39 36
-58.760 -25.891 5.654 39 41 38
-58.670 -25.695 5.679 39 41 38
-58.629 -25.451 5.736 28 30 27
-58.597 -25.190 5.803 27 29 26
-58.558 -24.924 5.871 38 38 36
-58.462 -24.707 5.910 87 87 85
-58.342 -24.510 5.937 53 53 51
-58.235 -24.292 5.977 54 54 52
-58.117 -24.081 6.014 91 92 94
-57.975 -23.895 6.038 30 31 33
-57.823 -23.715 6.061 84 85 87
-57.664 -23.542 6.081 132 133 135
-57.506 -23.363 6.106 37 29 27
-57.342 -23.186 6.132 80 74 74
-57.168 -23.023 6.152 55 53 54
-56.988 -22.863 6.173 121 118 113
-56.836 -22.646 6.224 145 134 116
-56.674 -22.437 6.272 161 149 127
-56.485 -22.272 6.300 155 143 121
-56.287 -22.116 6.326 155 143 121
-56.086 -21.963 6.352 156 144 122
-55.876 -21.822 6.375 156 144 122
-55.660 -21.690 6.396 156 144 122
-55.439 -21.566 6.416 156 144 122
-55.214 -21.447 6.436 155 142 123
-54.984 -21.335 6.455 155 142 123
-54.751 -21.228 6.474 154 141 122
-54.515 -21.124 6.494 154 141 122
-54.275 -21.028 6.513 155 140 121
-54.031 -20.940 6.531 157 142 123
-53.784 -20.856 6.550 166 151 132
-53.533 -20.781 6.568 125 110 91
-53.280 -20.718 6.583 156 138 124
-53.024 -20.655 6.601 146 135 117
-52.768 -20.565 6.633 144 136 115
-52.507 -20.498 6.658 145 134 112
-50.991 -33.727 3.154 177 170 160
-51.031 -33.802 3.175 184 171 155
-51.052 -33.926 3.218 244 225 208
-51.068 -34.077 3.273 246 228 206
-51.115 -34.165 3.299 184 169 150
-51.172 -34.232 3.317 180 170 158
-49.742 -38.812 5.304 185 178 170
-50.793 -36.021 4.070 182 173 166
-51.352 -34.459 3.384 176 167 158
-51.433 -34.475 3.382 184 175 166
-51.513 -34.491 3.381 161 154 146
-51.591 -34.518 3.385 120 111 104
-51.672 -34.533 3.385 79 69 59
-51.750 -34.569 3.395 82 72 60
-51.827 -34.616 3.410 87 77 65
-51.886 -34.864 3.509 192 184 173
-51.967 -34.993 3.560 160 150 138
-52.057 -35.038 3.576 185 175 165
-52.150 -35.053 3.581 180 175 171
-52.244 -35.050 3.579 169 169 169
-52.336 -35.008 3.562 6 4 7
-52.430 -35.030 3.572 74 72 75
-52.526 -35.069 3.591 30 28 31
-52.626 -35.120 3.616 95 94 92
-52.751 -35.349 3.716 182 177 171
-52.863 -35.415 3.749 185 175 165
-52.973 -35.441 3.767 184 174 162
-53.083 -35.460 3.783 173 169 157
-53.197 -35.482 3.802 170 162 151
-53.312 -35.502 3.821 167 150 140
-53.431 -35.531 3.845 163 144 129
-53.555 -35.562 3.871 161 145 130
-53.678 -35.579 3.894 137 121 106
-53.787 -35.551 3.897 82 70 56
-53.897 -35.526 3.903 66 58 47
-54.103 -35.727 4.012 179 172 164
-54.239 -35.740 4.040 176 170 158
-54.368 -35.731 4.059 174 167 149
-54.498 -35.717 4.077 169 162 146
-54.627 -35.698 4.095 171 164 154
-54.742 -35.649 4.100 172 168 156
-54.840 -35.570 4.092 159 156 141
-54.918 -35.462 4.071 120 112 99
-55.008 -35.376 4.061 123 116 97
-55.115 -35.315 4.065 120 115 96
-55.234 -35.271 4.079 79 71 58
-55.359 -35.230 4.097 58 49 40
-55.486 -35.189 4.117 101 98 91
-55.619 -35.152 4.141 149 149 141
-55.776 -35.136 4.179 45 42 35
-56.170 -35.362 4.358 180 172 161
-56.315 -35.309 4.385 181 173 162
-56.447 -35.240 4.404 181 173 162
-56.580 -35.169 4.424 179 171 160
-56.707 -35.088 4.441 179 171 160
-56.829 -35.001 4.457 182 178 169
-56.947 -34.909 4.471 176 173 168
-57.059 -34.810 4.483 102 102 104
-57.182 -34.717 4.502 127 128 132
-57.311 -34.625 4.525 97 100 107
-57.446 -34.533 4.550 56 59 64
-57.577 -34.435 4.576 102 106 109
-57.709 -34.335 4.602 135 139 138
-57.842 -34.231 4.630 37 36 34
-57.975 -34.123 4.658 116 109 101
-58.103 -34.010 4.685 142 126 110
-58.230 -33.892 4.712 149 126 110
-58.349 -33.768 4.737 146 123 107
-58.484 -33.646 4.771 179 164 145
-58.622 -33.521 4.806 182 175 157
-58.727 -33.380 4.828 139 130 113
-58.830 -33.236 4.851 175 166 149
-58.933 -33.090 4.875 175 168 150
-59.027 -32.938 4.897 174 167 149
-59.111 -32.780 4.915 172 165 147
-59.182 -32.619 4.930 155 144 124
-59.225 -32.450 4.935 147 136 116
-59.225 -32.274 4.924 112 104 91
-59.084 -32.082 4.855 47 39 36
-59.084 -31.912 4.847 43 33 32
-59.116 -31.745 4.855 46 35 33
-59.153 -31.578 4.865 50 39 35
-59.199 -31.409 4.882 54 43 37
-59.244 -31.238 4.900 64 54 42
-59.288 -31.065 4.919 78 66 52
-59.330 -30.890 4.939 85 76 61
-59.372 -30.713 4.961 94 85 70
-59.414 -30.532 4.985 103 95 76
-59.448 -30.350 5.007 108 100 81
-59.482 -30.165 5.031 111 104 86
-59.511 -29.977 5.055 120 114 100
-59.544 -29.786 5.083 72 65 57
-59.606 -29.585 5.126 65 59 47
-60.062 -29.280 5.338 163 158 139
-60.075 -29.071 5.366 164 159 140
-60.076 -28.863 5.390 167 159 140
-60.071 -28.653 5.414 167 159 140
-60.057 -28.443 5.438 165 157 138
-60.035 -28.233 5.459 164 156 137
-60.007 -28.023 5.481 162 151 131
-59.961 -27.817 5.497 119 104 81
-59.910 -27.613 5.513 162 146 123
-59.851 -27.409 5.528 163 150 131
-59.763 -27.219 5.532 151 136 115
-59.652 -27.041 5.527 145 132 115
-59.477 -26.903 5.493 77 73 61
-59.263 -26.793 5.442 60 61 55
-59.150 -26.624 5.440 26 28 25
-59.066 -26.433 5.457 29 31 28
-58.990 -26.235 5.479 29 31 28
-58.924 -26.025 5.510 28 30 27
-58.965 -25.722 5.602 28 28 26
-58.910 -25.488 5.647 34 34 32
-58.835 -25.264 5.685 32 34 33
-58.739 -25.054 5.715 49 53 52
-58.643 -24.839 5.749 28 29 24
-58.559 -24.605 5.794 142 143 138
-58.438 -24.403 5.821 78 80 79
-58.305 -24.212 5.844 164 165 170
-58.165 -24.023 5.866 114 117 122
-58.022 -23.834 5.890 91 95 98
-57.872 -23.650 5.913 133 134 136
-57.710 -23.477 5.932 98 98 98
-57.547 -23.302 5.954 85 75 74
-57.377 -23.132 5.975 23 13 12
-57.203 -22.965 5.996 77 71 71
-57.021 -22.805 6.015 82 83 78
-56.854 -22.612 6.051 84 78 64
-56.698 -22.388 6.104 150 139 121
-56.509 -22.220 6.132 156 141 120
-56.311 -22.063 6.157 155 142 123
-56.108 -21.909 6.183 151 138 119
-55.897 -21.768 6.204 156 143 124
-55.679 -21.636 6.224 155 142 123
-55.457 -21.511 6.243 154 141 122
-55.231 -21.390 6.263 155 144 124
-55.001 -21.276 6.282 154 143 123
-54.767 -21.165 6.301 151 140 120
-54.529 -21.059 6.321 149 138 118
-54.289 -20.958 6.342 126 115 97
-54.044 -20.865 6.361 160 149 131
-53.796 -20.775 6.382 154 143 125
-53.544 -20.692 6.401 153 142 124
-53.289 -20.621 6.419 152 139 122
-53.031 -20.558 6.436 150 137 118
-52.771 -20.496 6.455 150 137 118
-52.509 -20.430 6.478 149 136 117
-51.077 -33.421 2.978 162 161 159
-50.962 -33.785 3.127 183 175 164
-51.007 -33.854 3.143 173 162 144
-51.040 -33.953 3.173 243 226 210
-51.066 -34.082 3.216 223 206 186
-51.114 -34.167 3.240 196 183 164
-51.172 -34.233 3.257 186 176 164
-49.726 -38.859 5.172 194 190 181
-50.498 -36.992 4.376 191 182 173
-51.349 -34.471 3.325 192 184 173
-51.428 -34.493 3.326 185 178 168
-51.508 -34.514 3.326 176 172 163
-51.589 -34.527 3.325 152 143 138
-51.672 -34.532 3.321 85 76 67
-51.750 -34.564 3.329 86 79 63
-51.827 -34.614 3.344 95 87 76
-51.887 -34.862 3.439 194 186 175
-51.964 -35.033 3.504 160 150 138
-52.055 -35.070 3.516 187 177 167
-52.149 -35.081 3.519 177 172 168
-52.244 -35.079 3.518 185 185 185
-52.337 -35.041 3.503 88 88 90
-52.432 -35.078 3.519 68 68 70
-52.530 -35.122 3.539 94 94 96
-52.631 -35.172 3.562 122 122 120
-52.752 -35.358 3.640 183 178 172
-52.867 -35.443 3.680 183 173 161
-52.978 -35.471 3.698 185 175 163
-53.091 -35.497 3.716 172 160 144
-53.207 -35.528 3.737 148 131 115
-53.324 -35.554 3.758 163 141 127
-53.447 -35.587 3.783 165 148 132
-53.564 -35.590 3.797 73 60 44
-53.669 -35.554 3.796 80 68 56
-53.774 -35.516 3.795 80 70 60
-53.888 -35.502 3.806 71 63 52
-54.118 -35.763 3.935 169 162 154
-54.255 -35.776 3.961 181 174 164
-54.385 -35.766 3.979 177 170 152
-54.515 -35.750 3.996 170 163 147
-54.646 -35.733 4.014 168 160 149
-54.764 -35.688 4.021 174 172 160
-54.866 -35.613 4.016 169 167 154
-54.942 -35.500 3.993 120 112 99
-55.033 -35.413 3.984 122 114 101
-55.139 -35.349 3.987 129 123 111
-55.258 -35.303 4.000 100 93 83
-55.386 -35.265 4.018 109 102 96
-55.515 -35.225 4.038 133 128 124
-55.649 -35.187 4.061 135 136 131
-55.817 -35.181 4.103 57 56 51
-56.203 -35.397 4.269 178 169 160
-56.347 -35.342 4.293 181 173 162
-56.479 -35.271 4.311 181 173 162
-56.612 -35.198 4.330 179 171 160
-56.740 -35.117 4.347 179 171 160
-56.865 -35.031 4.363 185 178 168
-56.989 -34.942 4.379 177 174 169
-57.106 -34.844 4.392 110 110 112
-57.221 -34.744 4.406 131 134 141
-57.355 -34.654 4.429 46 49 54
-57.492 -34.562 4.455 73 73 73
-57.628 -34.466 4.481 135 130 126
-57.764 -34.366 4.507 98 88 78
-57.903 -34.263 4.536 166 148 136
-58.041 -34.156 4.565 158 137 120
-58.166 -34.040 4.589 155 132 114
-58.285 -33.916 4.611 150 124 109
-58.392 -33.785 4.630 140 114 99
-58.527 -33.662 4.661 155 139 123
-58.671 -33.538 4.697 179 174 155
-58.776 -33.396 4.719 180 168 154
-58.877 -33.251 4.739 174 165 148
-58.979 -33.102 4.762 174 167 149
-59.070 -32.948 4.781 175 168 150
-59.155 -32.790 4.799 173 166 148
-59.230 -32.628 4.815 160 152 133
-59.268 -32.457 4.817 149 141 122
-59.274 -32.281 4.809 128 121 105
-59.104 -32.084 4.731 50 43 37
-59.101 -31.914 4.723 39 29 27
-59.135 -31.747 4.731 47 38 33
-59.177 -31.579 4.743 53 44 37
-59.222 -31.410 4.758 62 53 46
-59.268 -31.238 4.776 72 65 49
-59.315 -31.065 4.795 80 73 55
-59.358 -30.889 4.815 94 87 71
-59.411 -30.710 4.840 101 94 76
-59.459 -30.528 4.865 105 98 82
-59.501 -30.343 4.890 85 77 64
-59.554 -30.154 4.921 85 78 68
-59.596 -29.963 4.949 108 104 95
-59.625 -29.770 4.974 38 30 27
-59.660 -29.573 5.004 63 54 47
-60.100 -29.270 5.201 164 157 139
-60.121 -29.058 5.230 165 158 140
-60.125 -28.848 5.254 167 159 140
-60.120 -28.636 5.278 167 159 140
-60.107 -28.425 5.300 165 157 138
-60.085 -28.214 5.321 164 156 137
-60.057 -28.002 5.342 159 151 132
-60.016 -27.793 5.360 139 124 103
-59.961 -27.588 5.374 157 141 116
-59.902 -27.383 5.388 161 148 129
-59.815 -27.191 5.393 151 138 119
-59.706 -27.011 5.389 144 132 116
-59.536 -26.868 5.360 94 87 77
-59.337 -26.747 5.318 69 70 65
-59.233 -26.568 5.322 28 30 27
-59.178 -26.354 5.352 29 31 28
-59.166 -26.104 5.406 23 25 22
-59.148 -25.850 5.461 19 21 18
-59.099 -25.612 5.505 43 43 41
-59.035 -25.380 5.545 23 23 21
-58.949 -25.161 5.576 122 124 123
-58.839 -24.959 5.599 76 80 81
-58.724 -24.758 5.621 67 66 71
-58.606 -24.556 5.646 128 127 132
-58.480 -24.358 5.670 128 129 134
-58.347 -24.163 5.693 135 138 145
-58.208 -23.970 5.716 79 82 89
-58.063 -23.782 5.738 174 174 182
-57.909 -23.599 5.758 120 119 125
-57.748 -23.422 5.778 101 100 105
-57.583 -23.247 5.798 109 105 106
-57.411 -23.077 5.817 42 38 39
-57.236 -22.909 5.837 132 130 131
-57.054 -22.747 5.856 32 30 31
-56.874 -22.576 5.882 55 51 39
-56.722 -22.341 5.936 156 145 127
-56.536 -22.163 5.967 156 141 120
-56.333 -22.013 5.988 155 142 123
-56.128 -21.860 6.011 155 142 123
-55.915 -21.720 6.032 154 141 122
-55.697 -21.586 6.051 158 145 126
-55.474 -21.459 6.070 152 139 120
-55.248 -21.335 6.090 129 118 98
-55.017 -21.215 6.110 135 124 104
-54.783 -21.101 6.130 159 148 128
-54.545 -20.990 6.151 153 142 122
-54.303 -20.887 6.171 151 143 124
-54.056 -20.792 6.190 155 147 128
-53.806 -20.703 6.209 153 145 126
-53.553 -20.622 6.227 152 144 125
-53.296 -20.550 6.244 155 142 123
-53.037 -20.487 6.260 153 140 121
-52.775 -20.429 6.277 150 137 118
-52.511 -20.363 6.299 149 136 117
-50.947 -33.814 3.085 178 171 161
-50.982 -33.905 3.110 176 169 151
-51.015 -34.011 3.141 255 248 226
-51.059 -34.098 3.165 165 150 129
-51.107 -34.184 3.188 190 177 158
-51.165 -34.252 3.204 188 178 166
-49.715 -38.892 5.034 187 183 174
-50.095 -38.321 4.786 172 163 154
-51.343 -34.492 3.270 188 180 169
-51.422 -34.519 3.273 185 178 168
-51.501 -34.544 3.275 179 175 166
-51.583 -34.561 3.275 162 155 147
-51.666 -34.566 3.271 107 101 89
-51.746 -34.593 3.276 87 81 69
-51.824 -34.637 3.289 102 95 87
-51.885 -34.881 3.378 188 179 170
-51.961 -35.073 3.447 166 156 144
-52.054 -35.100 3.455 187 177 167
-52.149 -35.106 3.456 181 176 172
-52.244 -35.102 3.454 17 17 17
-52.338 -35.090 3.450 106 106 106
-52.435 -35.130 3.467 117 117 117
-52.534 -35.169 3.483 125 125 125
-52.635 -35.216 3.504 138 137 135
-52.754 -35.376 3.569 192 185 179
-52.871 -35.470 3.610 187 177 165
-52.983 -35.502 3.629 186 178 165
-53.097 -35.528 3.646 187 170 154
-53.214 -35.560 3.667 151 130 113
-53.335 -35.595 3.690 98 79 65
-53.446 -35.582 3.696 66 56 44
-53.550 -35.546 3.694 65 56 47
-53.655 -35.512 3.694 61 52 45
-53.760 -35.476 3.694 66 57 48
-53.880 -35.480 3.711 62 53 44
-54.131 -35.794 3.856 178 171 165
-54.269 -35.807 3.881 179 172 162
-54.400 -35.797 3.898 175 168 150
-54.529 -35.780 3.914 172 165 149
-54.662 -35.762 3.931 169 160 151
-54.782 -35.720 3.939 179 176 167
-54.885 -35.646 3.934 179 177 165
-54.968 -35.541 3.917 118 110 99
-55.067 -35.464 3.913 132 123 114
-55.186 -35.416 3.923 81 74 68
-55.316 -35.381 3.941 89 84 81
-55.454 -35.352 3.964 80 76 77
-55.584 -35.309 3.982 103 102 98
-55.729 -35.279 4.008 62 62 64
-55.929 -35.304 4.065 41 41 43
-56.225 -35.420 4.173 180 173 163
-56.374 -35.369 4.198 180 172 159
-56.508 -35.299 4.216 181 173 160
-56.642 -35.225 4.234 180 172 159
-56.771 -35.144 4.250 180 172 159
-56.898 -35.059 4.266 182 176 164
-57.025 -34.970 4.283 176 172 163
-57.137 -34.867 4.293 123 122 118
-57.254 -34.767 4.307 30 30 32
-57.392 -34.678 4.330 28 23 19
-57.540 -34.592 4.359 123 113 103
-57.689 -34.502 4.389 156 137 122
-57.832 -34.404 4.418 161 133 112
-57.967 -34.297 4.442 161 130 109
-58.092 -34.182 4.464 155 126 108
-58.208 -34.059 4.483 157 131 116
-58.315 -33.930 4.500 151 128 114
-58.404 -33.790 4.510 80 63 47
-58.533 -33.664 4.537 159 147 131
-58.707 -33.551 4.584 173 166 150
-58.815 -33.409 4.605 176 164 152
-58.916 -33.263 4.624 174 165 148
-59.021 -33.114 4.647 174 167 149
-59.111 -32.959 4.664 172 165 147
-59.195 -32.799 4.682 171 164 146
-59.274 -32.637 4.698 163 154 139
-59.311 -32.465 4.700 149 140 123
-59.316 -32.287 4.691 129 122 106
-59.136 -32.088 4.614 51 44 36
-59.127 -31.916 4.603 48 40 37
-59.159 -31.748 4.610 18 11 5
-59.201 -31.580 4.622 60 53 45
-59.247 -31.410 4.637 69 62 54
-59.297 -31.238 4.655 68 62 48
-59.345 -31.064 4.674 78 74 62
-59.393 -30.887 4.694 89 82 72
-59.465 -30.706 4.725 106 99 81
-59.536 -30.520 4.758 80 71 62
-59.601 -30.331 4.790 67 60 54
-59.639 -30.141 4.814 63 55 52
-59.661 -29.951 4.834 59 49 48
-59.679 -29.759 4.853 50 39 37
-59.711 -29.561 4.881 70 59 53
-60.133 -29.262 5.061 166 157 140
-60.167 -29.046 5.094 168 159 142
-60.171 -28.834 5.118 166 158 139
-60.166 -28.621 5.140 166 158 139
-60.151 -28.409 5.161 164 156 137
-60.130 -28.196 5.182 164 156 137
-60.103 -27.983 5.202 161 153 134
-60.064 -27.772 5.220 161 146 125
-60.009 -27.566 5.233 154 138 113
-59.947 -27.361 5.246 160 147 128
-59.861 -27.167 5.251 152 139 120
-59.768 -26.976 5.255 150 138 122
-59.628 -26.812 5.240 26 19 9
-59.505 -26.640 5.235 27 23 20
-59.430 -26.436 5.253 24 24 22
-59.373 -26.217 5.282 44 44 42
-59.318 -25.992 5.315 27 27 25
-59.270 -25.755 5.354 91 91 89
-59.192 -25.536 5.383 46 47 42
-59.094 -25.329 5.405 41 41 41
-58.988 -25.125 5.426 96 97 101
-58.880 -24.920 5.449 132 135 140
-58.766 -24.716 5.472 130 129 143
-58.646 -24.514 5.494 131 130 144
-58.515 -24.318 5.515 129 129 139
-58.380 -24.124 5.536 88 89 94
-58.242 -23.929 5.559 84 84 92
-58.097 -23.738 5.581 161 160 168
-57.942 -23.555 5.600 106 105 111
-57.781 -23.376 5.619 125 123 128
-57.614 -23.201 5.638 67 67 69
-57.441 -23.030 5.657 105 105 107
-57.266 -22.860 5.677 128 128 130
-57.085 -22.692 5.697 52 50 53
-56.901 -22.525 5.719 60 56 45
-56.747 -22.292 5.770 148 140 121
-56.559 -22.115 5.798 155 143 121
-56.356 -21.961 5.819 155 144 124
-56.147 -21.814 5.839 156 145 125
-55.934 -21.672 5.859 123 112 92
-55.716 -21.533 5.880 154 143 123
-55.494 -21.399 5.900 160 149 129
-55.267 -21.270 5.921 153 145 124
-55.036 -21.149 5.940 155 147 126
-54.799 -21.036 5.958 154 146 125
-54.559 -20.929 5.977 153 145 124
-54.314 -20.828 5.995 153 145 126
-54.066 -20.735 6.012 154 146 127
-53.815 -20.647 6.030 153 145 126
-53.560 -20.565 6.048 153 145 126
-53.302 -20.491 6.065 153 140 121
-53.041 -20.428 6.080 151 138 119
-52.778 -20.370 6.096 150 137 118
-52.512 -20.306 6.116 149 136 117
-50.926 -33.857 3.049 177 173 164
-50.960 -33.952 3.074 176 174 153
-51.005 -34.033 3.094 250 246 219
-51.047 -34.128 3.119 207 192 169
-51.097 -34.210 3.140 194 181 162
-51.156 -34.279 3.156 184 174 162
-49.705 -38.923 4.896 204 200 191
-49.907 -38.941 4.880 197 188 179
-51.336 -34.517 3.217 185 177 166
-51.415 -34.547 3.220 186 179 169
-51.494 -34.575 3.224 180 176 167
-51.576 -34.596 3.225 164 160 151
-51.660 -34.600 3.221 110 106 94
-51.742 -34.621 3.223 96 92 81
-51.822 -34.660 3.234 80 75 69
-51.885 -34.878 3.308 182 173 164
-51.958 -35.105 3.387 175 165 153
-52.052 -35.129 3.394 183 173 163
-52.148 -35.136 3.395 180 175 171
-52.244 -35.132 3.393 116 116 114
-52.339 -35.133 3.394 128 128 126
-52.437 -35.166 3.407 126 126 124
-52.536 -35.199 3.421 118 118 116
-52.639 -35.254 3.444 144 140 137
-52.756 -35.396 3.499 177 168 163
-52.874 -35.492 3.538 183 173 161
-52.988 -35.529 3.558 189 183 169
-53.102 -35.554 3.574 186 178 159
-53.215 -35.565 3.587 137 124 108
-53.323 -35.546 3.589 44 31 23
-53.426 -35.510 3.586 41 37 34
-53.533 -35.490 3.590 44 40 37
-53.637 -35.457 3.589 45 40 36
-53.749 -35.445 3.598 52 43 38
-53.872 -35.461 3.619 77 66 60
-54.140 -35.817 3.773 178 171 165
-54.282 -35.836 3.800 179 172 162
-54.413 -35.826 3.816 176 169 151
-54.543 -35.807 3.830 173 166 150
-54.676 -35.789 3.846 169 160 153
-54.799 -35.749 3.855 179 176 169
-54.909 -35.685 3.855 177 174 165
-55.001 -35.593 3.844 121 112 103
-55.106 -35.523 3.844 124 115 108
-55.228 -35.475 3.854 95 88 82
-55.357 -35.437 3.870 73 70 65
-55.499 -35.410 3.893 59 58 56
-55.660 -35.401 3.927 19 19 19
-55.865 -35.437 3.984 155 155 163
-56.008 -35.392 4.006 72 71 79
-56.245 -35.441 4.076 183 179 168
-56.400 -35.395 4.103 180 173 157
-56.537 -35.326 4.121 181 174 158
-56.673 -35.253 4.139 180 173 157
-56.803 -35.171 4.154 180 173 157
-56.929 -35.084 4.169 183 179 167
-57.056 -34.994 4.184 183 177 165
-57.172 -34.894 4.196 132 122 110
-57.304 -34.803 4.215 134 118 105
-57.457 -34.722 4.243 163 140 126
-57.606 -34.634 4.271 161 135 118
-57.746 -34.537 4.296 162 137 117
-57.880 -34.431 4.318 158 133 111
-58.008 -34.320 4.339 159 137 116
-58.134 -34.204 4.360 151 132 117
-58.238 -34.073 4.373 88 70 58
-58.292 -33.919 4.367 94 81 64
-58.337 -33.762 4.360 82 73 56
-58.444 -33.630 4.378 126 117 102
-58.734 -33.561 4.466 174 164 152
-58.852 -33.421 4.490 174 164 152
-58.954 -33.274 4.509 172 165 149
-59.058 -33.124 4.530 172 165 147
-59.149 -32.968 4.547 174 167 149
-59.234 -32.808 4.563 171 164 146
-59.317 -32.645 4.580 169 160 145
-59.357 -32.473 4.583 143 134 117
-59.365 -32.295 4.576 130 123 107
-59.177 -32.093 4.499 56 49 39
-59.157 -31.919 4.486 51 46 42
-59.191 -31.751 4.492 50 45 39
-59.236 -31.582 4.505 59 55 46
-59.282 -31.411 4.519 71 67 58
-59.343 -31.238 4.540 52 52 42
-59.443 -31.062 4.577 17 13 12
-59.526 -30.881 4.609 24 15 18
-59.542 -30.700 4.618 106 96 86
-59.596 -30.514 4.643 96 89 81
-59.654 -30.324 4.672 82 77 71
-59.683 -30.135 4.691 63 54 49
-59.706 -29.944 4.710 63 52 48
-59.732 -29.749 4.732 60 49 47
-59.753 -29.552 4.754 64 53 47
-60.160 -29.256 4.920 170 161 144
-60.211 -29.033 4.958 165 156 139
-60.215 -28.820 4.981 166 158 139
-60.210 -28.607 5.002 166 158 139
-60.194 -28.394 5.021 165 157 138
-60.174 -28.179 5.041 165 157 138
-60.147 -27.965 5.061 162 154 135
-60.114 -27.750 5.080 159 144 123
-60.058 -27.542 5.093 149 133 108
-59.991 -27.339 5.103 161 148 129
-59.909 -27.141 5.110 150 142 121
-59.822 -26.945 5.117 138 129 112
-59.698 -26.771 5.110 62 55 45
-59.614 -26.571 5.121 84 79 76
-59.546 -26.359 5.143 57 56 54
-59.495 -26.131 5.173 99 98 96
-59.431 -25.908 5.202 52 51 49
-59.335 -25.704 5.219 64 63 61
-59.241 -25.496 5.239 91 92 87
-59.139 -25.290 5.259 140 140 140
-59.031 -25.087 5.278 122 123 127
-58.921 -24.881 5.299 68 71 80
-58.807 -24.675 5.321 127 131 142
-58.684 -24.474 5.342 120 123 132
-58.555 -24.275 5.363 87 87 95
-58.419 -24.079 5.383 62 59 66
-58.275 -23.889 5.402 140 139 144
-58.128 -23.698 5.423 102 102 104
-57.973 -23.513 5.441 118 116 119
-57.812 -23.331 5.460 93 89 90
-57.645 -23.154 5.479 50 41 42
-57.472 -22.981 5.497 123 117 117
-57.295 -22.810 5.516 13 9 8
-57.112 -22.645 5.534 25 24 22
-56.927 -22.477 5.555 34 32 19
-56.767 -22.251 5.600 153 146 127
-56.580 -22.070 5.629 119 108 86
-56.378 -21.911 5.651 157 149 128
-56.170 -21.759 5.671 159 151 130
-55.957 -21.612 5.692 157 149 128
-55.738 -21.472 5.711 153 145 124
-55.514 -21.340 5.730 155 147 126
-55.284 -21.215 5.748 152 146 124
-55.050 -21.097 5.765 153 147 125
-54.812 -20.984 5.782 153 147 125
-54.570 -20.877 5.800 153 147 125
-54.325 -20.777 5.817 153 145 126
-54.075 -20.683 5.833 154 146 127
-53.822 -20.595 5.850 152 144 125
-53.566 -20.515 5.866 152 144 125
-53.307 -20.440 5.882 153 140 121
-53.045 -20.375 5.897 151 138 119
-52.780 -20.315 5.913 150 137 118
-52.513 -20.255 5.931 149 136 117
-50.912 -33.883 3.005 184 177 167
-50.942 -33.991 3.034 175 168 152
-50.997 -34.051 3.044 255 254 233
-51.037 -34.151 3.070 183 172 152
-51.090 -34.230 3.088 136 124 110
-51.147 -34.302 3.105 118 109 100
-49.687 -38.977 4.766 195 186 177
-49.854 -39.115 4.794 217 210 200
-51.327 -34.549 3.166 184 176 165
-51.406 -34.581 3.170 187 179 168
-51.486 -34.610 3.173 182 177 171
-51.568 -34.633 3.175 169 164 158
-51.654 -34.638 3.171 132 125 119
-51.736 -34.661 3.175 67 62 58
-51.815 -34.713 3.188 126 122 121
-51.877 -34.955 3.268 174 169 163
-51.956 -35.133 3.326 185 179 165
-52.051 -35.159 3.332 180 173 157
-52.147 -35.168 3.334 186 181 175
-52.244 -35.172 3.335 152 152 154
-52.340 -35.165 3.333 145 143 146
-52.438 -35.198 3.346 124 120 117
-52.539 -35.237 3.361 132 125 117
-52.645 -35.315 3.390 158 144 133
-52.762 -35.443 3.438 187 173 162
-52.879 -35.523 3.470 163 154 145
-52.993 -35.555 3.487 185 177 164
-53.106 -35.573 3.500 188 176 162
-53.218 -35.577 3.509 148 136 122
-53.318 -35.527 3.501 89 81 70
-53.417 -35.477 3.493 40 35 31
-53.522 -35.454 3.495 34 33 31
-53.629 -35.433 3.499 41 36 32
-53.744 -35.433 3.512 63 52 46
-53.871 -35.457 3.535 86 79 71
-54.149 -35.838 3.690 173 168 162
-54.294 -35.865 3.718 179 172 162
-54.427 -35.854 3.733 176 169 151
-54.556 -35.833 3.746 173 166 150
-54.688 -35.812 3.760 168 160 147
-54.811 -35.771 3.768 180 176 165
-54.925 -35.712 3.771 172 169 160
-55.023 -35.628 3.764 121 117 106
-55.134 -35.564 3.766 99 96 87
-55.261 -35.523 3.779 35 34 30
-55.426 -35.530 3.814 22 23 25
-55.602 -35.541 3.853 93 98 104
-55.757 -35.520 3.880 65 65 73
-55.903 -35.480 3.902 76 78 90
-56.040 -35.427 3.919 93 93 101
-56.259 -35.456 3.977 189 182 172
-56.424 -35.419 4.007 180 173 157
-56.565 -35.353 4.025 180 173 157
-56.703 -35.280 4.043 179 172 156
-56.835 -35.199 4.058 180 173 157
-56.961 -35.110 4.072 172 168 156
-57.087 -35.018 4.085 191 182 165
-57.219 -34.929 4.103 159 138 117
-57.359 -34.841 4.124 165 139 116
-57.506 -34.755 4.149 168 140 118
-57.651 -34.662 4.173 158 129 111
-57.789 -34.562 4.195 162 136 119
-57.927 -34.458 4.217 161 142 127
-58.036 -34.334 4.229 84 72 58
-58.107 -34.190 4.228 90 81 66
-58.154 -34.034 4.219 85 76 61
-58.203 -33.880 4.213 82 71 53
-58.272 -33.736 4.215 74 65 48
-58.368 -33.601 4.228 87 75 59
-58.765 -33.572 4.351 174 165 148
-58.889 -33.434 4.376 173 166 150
-58.991 -33.285 4.393 173 164 147
-59.095 -33.135 4.413 172 163 146
-59.189 -32.978 4.430 174 165 148
-59.275 -32.817 4.446 172 163 146
-59.361 -32.654 4.463 169 157 143
-59.402 -32.481 4.466 139 130 113
-59.411 -32.302 4.459 130 123 105
-59.235 -32.101 4.391 59 51 40
-59.198 -31.923 4.372 56 51 45
-59.238 -31.754 4.381 44 41 36
-59.291 -31.585 4.395 56 52 49
-59.355 -31.413 4.415 36 32 31
-59.485 -31.238 4.458 72 75 66
-59.555 -31.059 4.483 34 36 33
-59.587 -30.878 4.496 38 34 35
-59.594 -30.696 4.502 89 82 72
-59.639 -30.510 4.523 104 102 89
-59.699 -30.319 4.550 79 74 68
-59.727 -30.128 4.568 64 59 55
-59.753 -29.935 4.587 65 58 52
-59.771 -29.741 4.605 57 52 48
-59.793 -29.543 4.626 78 71 65
-60.122 -29.265 4.757 155 145 135
-60.254 -29.022 4.821 169 156 140
-60.258 -28.807 4.843 168 157 139
-60.253 -28.593 4.863 166 158 139
-60.237 -28.378 4.882 165 157 138
-60.218 -28.162 4.901 164 156 137
-60.191 -27.946 4.920 163 152 134
-60.161 -27.729 4.940 158 143 122
-60.106 -27.520 4.952 142 128 102
-60.035 -27.316 4.961 159 148 128
-59.955 -27.117 4.968 156 145 127
-59.867 -26.920 4.974 148 137 119
-59.762 -26.732 4.976 94 84 72
-59.683 -26.527 4.989 72 69 64
-59.616 -26.312 5.010 40 39 35
-59.547 -26.095 5.032 73 72 68
-59.471 -25.878 5.054 75 74 70
-59.378 -25.670 5.072 97 96 92
-59.283 -25.461 5.091 113 114 109
-59.182 -25.253 5.110 181 181 179
-59.074 -25.048 5.129 83 84 88
-58.962 -24.842 5.149 20 27 33
-58.846 -24.636 5.170 129 133 142
-58.722 -24.434 5.189 115 115 125
-58.591 -24.235 5.208 74 74 82
-58.452 -24.041 5.226 96 95 101
-58.307 -23.850 5.245 103 103 105
-58.158 -23.659 5.263 77 75 76
-58.003 -23.473 5.282 14 8 8
-57.843 -23.288 5.301 30 19 17
-57.674 -23.112 5.318 124 113 109
-57.502 -22.934 5.337 44 33 27
-57.327 -22.757 5.357 22 13 4
-57.154 -22.571 5.382 95 87 74
-56.985 -22.368 5.414 137 130 111
-56.798 -22.190 5.439 155 147 126
-56.609 -22.009 5.466 155 147 126
-56.404 -21.853 5.485 154 148 126
-56.193 -21.703 5.504 154 146 125
-55.978 -21.559 5.522 155 144 124
-55.756 -21.420 5.540 155 144 124
-55.530 -21.290 5.556 156 145 125
-55.299 -21.165 5.573 153 145 126
-55.064 -21.046 5.590 153 145 126
-54.825 -20.933 5.606 152 144 125
-54.582 -20.826 5.623 152 144 125
-54.335 -20.725 5.639 153 145 126
-54.084 -20.631 5.655 153 145 126
-53.830 -20.543 5.670 151 143 124
-53.573 -20.463 5.686 151 143 124
-53.312 -20.387 5.701 149 142 123
-53.049 -20.323 5.715 148 140 121
-52.783 -20.264 5.730 147 139 120
-52.514 -20.203 5.747 148 137 117
-51.077 -33.298 2.761 161 157 156
-50.871 -33.807 2.936 182 173 166
-50.895 -33.918 2.964 184 176 165
-50.930 -34.015 2.987 181 172 157
-50.973 -34.104 3.007 243 232 212
-51.027 -34.175 3.021 176 168 149
-51.085 -34.241 3.034 130 120 108
-51.144 -34.313 3.049 51 42 35
-49.666 -39.040 4.640 201 194 186
-49.822 -39.222 4.680 235 231 222
-51.319 -34.581 3.114 192 184 173
-51.398 -34.614 3.118 187 179 168
-51.479 -34.645 3.122 181 178 171
-51.560 -34.676 3.126 164 159 155
-51.642 -34.704 3.130 70 65 61
-51.721 -34.760 3.144 97 93 92
-51.799 -34.842 3.167 111 109 110
-51.875 -34.981 3.208 133 130 125
-51.954 -35.160 3.263 187 181 169
-52.049 -35.190 3.271 170 163 147
-52.146 -35.203 3.274 184 180 171
-52.244 -35.210 3.276 167 164 159
-52.341 -35.201 3.274 126 122 113
-52.441 -35.255 3.292 124 114 102
-52.546 -35.345 3.323 159 143 128
-52.654 -35.407 3.346 162 143 129
-52.767 -35.483 3.374 186 172 161
-52.884 -35.555 3.402 182 173 164
-52.998 -35.587 3.418 186 176 166
-53.112 -35.602 3.430 191 177 164
-53.224 -35.606 3.438 146 134 118
-53.324 -35.551 3.428 108 100 87
-53.416 -35.476 3.413 45 40 34
-53.520 -35.448 3.413 44 39 36
-53.632 -35.442 3.422 54 45 40
-53.750 -35.449 3.437 83 73 64
-53.875 -35.469 3.457 101 94 86
-54.154 -35.851 3.604 179 174 168
-54.304 -35.887 3.634 179 172 162
-54.439 -35.880 3.650 176 169 151
-54.568 -35.857 3.661 173 166 150
-54.700 -35.834 3.674 170 163 147
-54.824 -35.793 3.682 181 177 166
-54.944 -35.744 3.688 167 164 157
-55.063 -35.690 3.693 38 35 26
-55.209 -35.677 3.715 28 28 20
-55.346 -35.643 3.731 122 122 120
-55.480 -35.602 3.746 58 61 66
-55.629 -35.576 3.768 99 106 116
-55.779 -35.546 3.790 96 100 111
-55.918 -35.498 3.807 107 111 123
-56.053 -35.441 3.823 85 85 93
-56.266 -35.463 3.874 175 170 164
-56.445 -35.440 3.909 180 173 157
-56.591 -35.377 3.929 180 173 157
-56.731 -35.305 3.946 179 172 156
-56.864 -35.224 3.960 180 173 157
-56.991 -35.135 3.973 173 167 153
-57.123 -35.046 3.989 196 185 167
-57.254 -34.955 4.004 157 135 112
-57.391 -34.864 4.023 159 134 112
-57.540 -34.777 4.047 164 142 121
-57.692 -34.689 4.072 161 140 123
-57.809 -34.574 4.085 84 66 52
-57.887 -34.435 4.084 93 79 66
-57.947 -34.287 4.078 85 75 63
-58.004 -34.138 4.072 79 70 55
-58.065 -33.992 4.069 81 69 53
-58.119 -33.843 4.065 76 65 47
-58.207 -33.708 4.074 77 65 49
-58.313 -33.580 4.090 80 68 52
-58.801 -33.585 4.238 174 165 148
-58.925 -33.446 4.261 173 166 148
-59.027 -33.296 4.278 174 165 148
-59.131 -33.144 4.296 173 164 147
-59.227 -32.988 4.313 175 166 149
-59.315 -32.826 4.329 172 163 146
-59.404 -32.663 4.346 168 159 144
-59.448 -32.489 4.350 133 125 106
-59.456 -32.308 4.343 124 117 99
-59.326 -32.112 4.293 54 48 36
-59.260 -31.929 4.265 32 31 29
-59.312 -31.760 4.277 25 25 25
-59.383 -31.589 4.297 30 30 32
-59.457 -31.415 4.318 34 33 38
-59.537 -31.238 4.343 42 44 41
-59.608 -31.058 4.367 36 36 36
-59.635 -30.875 4.378 24 20 21
-59.650 -30.692 4.386 35 31 22
-59.692 -30.505 4.405 110 106 95
-59.742 -30.314 4.427 59 54 50
-59.773 -30.121 4.446 69 65 64
-59.797 -29.928 4.463 73 70 65
-59.816 -29.732 4.481 71 72 67
-59.836 -29.533 4.500 85 84 79
-60.005 -29.294 4.571 128 124 113
-60.295 -29.010 4.684 169 160 143
-60.300 -28.795 4.705 166 158 139
-60.292 -28.579 4.724 166 158 139
-60.278 -28.364 4.742 165 157 138
-60.259 -28.146 4.760 164 156 137
-60.233 -27.929 4.779 166 158 139
-60.203 -27.710 4.797 159 147 125
-60.149 -27.499 4.810 136 120 95
-60.079 -27.295 4.818 157 146 126
-59.998 -27.094 4.825 159 148 130
-59.908 -26.897 4.830 145 132 115
-59.802 -26.708 4.831 98 86 72
-59.727 -26.500 4.846 71 68 61
-59.659 -26.283 4.866 69 68 63
-59.584 -26.069 4.885 83 82 77
-59.501 -25.856 4.903 102 101 96
-59.413 -25.644 4.922 138 137 132
-59.318 -25.433 4.940 132 133 125
-59.216 -25.224 4.959 129 130 124
-59.108 -25.017 4.977 31 30 35
-58.996 -24.810 4.996 29 36 44
-58.878 -24.604 5.015 117 124 132
-58.754 -24.400 5.034 84 88 97
-58.622 -24.200 5.052 77 80 87
-58.485 -24.003 5.070 123 124 129
-58.341 -23.809 5.088 59 58 63
-58.192 -23.617 5.106 46 42 43
-58.037 -23.427 5.125 32 24 21
-57.881 -23.234 5.146 51 38 30
-57.724 -23.037 5.169 87 77 67
-57.564 -22.836 5.195 165 155 143
-57.393 -22.648 5.218 151 142 125
-57.214 -22.464 5.240 147 139 118
-57.024 -22.294 5.259 150 139 119
-56.833 -22.122 5.279 153 142 122
-56.632 -21.960 5.298 155 147 126
-56.424 -21.806 5.315 154 148 126
-56.212 -21.658 5.332 156 145 125
-55.994 -21.515 5.349 155 144 124
-55.772 -21.376 5.366 155 144 124
-55.545 -21.245 5.382 156 145 125
-55.313 -21.118 5.398 152 144 125
-55.077 -20.998 5.414 152 144 125
-54.837 -20.885 5.430 152 144 125
-54.593 -20.776 5.445 152 144 125
-54.344 -20.676 5.460 152 144 125
-54.093 -20.582 5.475 152 144 125
-53.837 -20.495 5.490 151 143 124
-53.579 -20.414 5.504 151 143 124
-53.317 -20.338 5.519 150 142 121
-53.052 -20.273 5.533 150 139 119
-52.785 -20.214 5.547 149 137 115
-52.516 -20.151 5.563 148 136 114
-50.879 -33.514 2.805 178 173 170
-50.820 -33.752 2.876 183 174 165
-50.850 -33.846 2.897 183 174 167
-50.880 -33.947 2.920 185 177 166
-50.915 -34.047 2.943 177 168 153
-50.959 -34.137 2.962 187 176 156
-51.018 -34.198 2.972 176 167 150
-51.079 -34.258 2.982 163 155 144
-51.139 -34.324 2.994 61 54 48
-49.656 -39.072 4.503 200 195 189
-49.790 -39.327 4.564 240 236 227
-51.308 -34.618 3.064 190 182 171
-51.389 -34.650 3.067 188 180 169
-51.470 -34.684 3.071 181 178 171
-51.551 -34.722 3.078 171 166 162
-51.629 -34.779 3.090 65 61 58
-51.710 -34.837 3.104 101 99 100
-51.792 -34.896 3.118 66 66 68
-51.872 -35.013 3.151 115 112 105
-51.953 -35.177 3.198 184 178 166
-52.048 -35.216 3.208 160 154 138
-52.145 -35.238 3.214 189 179 169
-52.244 -35.256 3.219 143 134 119
-52.343 -35.284 3.228 158 147 129
-52.446 -35.353 3.250 156 141 122
-52.551 -35.406 3.268 162 143 126
-52.656 -35.423 3.275 82 65 55
-52.766 -35.472 3.294 121 108 99
-52.887 -35.576 3.330 182 176 164
-53.003 -35.615 3.347 185 175 165
-53.118 -35.632 3.359 185 175 163
-53.231 -35.637 3.368 149 140 123
-53.331 -35.579 3.357 138 130 117
-53.422 -35.496 3.340 60 51 46
-53.528 -35.471 3.342 55 45 43
-53.641 -35.468 3.351 66 56 54
-53.759 -35.474 3.365 91 83 80
-53.885 -35.493 3.383 63 58 54
-54.151 -35.843 3.512 187 182 176
-54.312 -35.904 3.548 178 171 161
-54.449 -35.902 3.565 173 166 148
-54.580 -35.880 3.576 172 165 149
-54.712 -35.856 3.588 168 161 145
-54.839 -35.821 3.598 183 179 168
-54.967 -35.782 3.607 54 51 46
-55.095 -35.741 3.617 141 138 133
-55.230 -35.708 3.631 83 82 77
-55.367 -35.673 3.645 96 96 96
-55.509 -35.641 3.663 49 53 56
-55.655 -35.609 3.682 92 99 107
-55.799 -35.571 3.700 91 99 110
-55.938 -35.521 3.716 72 76 87
-56.072 -35.463 3.729 43 42 47
-56.272 -35.470 3.772 169 166 157
-56.474 -35.468 3.815 180 172 159
-56.620 -35.405 3.833 180 173 157
-56.759 -35.331 3.848 180 173 157
-56.892 -35.249 3.862 181 174 158
-57.024 -35.161 3.876 181 174 158
-57.157 -35.073 3.891 188 175 158
-57.282 -34.975 3.903 159 142 122
-57.411 -34.878 3.917 149 132 114
-57.540 -34.777 3.932 90 78 62
-57.634 -34.652 3.935 87 75 61
-57.706 -34.513 3.932 82 72 60
-57.778 -34.373 3.929 76 68 57
-57.849 -34.234 3.928 74 64 52
-57.920 -34.095 3.928 71 59 45
-58.003 -33.963 3.933 76 64 48
-58.093 -33.831 3.941 83 70 53
-58.189 -33.701 3.952 83 71 55
-58.295 -33.573 3.968 94 82 66
-58.840 -33.598 4.125 173 164 147
-58.963 -33.458 4.147 173 166 148
-59.062 -33.307 4.161 174 165 148
-59.166 -33.154 4.179 174 165 148
-59.263 -32.997 4.195 173 164 147
-59.353 -32.835 4.210 171 162 145
-59.444 -32.671 4.227 166 159 141
-59.494 -32.497 4.232 122 115 96
-59.506 -32.316 4.227 118 112 96
-59.418 -32.123 4.193 17 13 4
-59.323 -31.936 4.158 16 17 19
-59.376 -31.764 4.169 19 23 26
-59.438 -31.592 4.185 21 25 28
-59.502 -31.417 4.202 23 27 28
-59.583 -31.238 4.226 28 30 29
-59.653 -31.056 4.248 61 59 62
-59.682 -30.873 4.259 31 26 30
-59.696 -30.689 4.267 53 45 42
-59.737 -30.500 4.284 105 101 89
-59.786 -30.308 4.305 61 58 53
-59.817 -30.115 4.323 82 80 81
-59.841 -29.920 4.339 88 87 85
-59.866 -29.722 4.358 75 79 78
-59.889 -29.522 4.377 98 100 97
-60.010 -29.293 4.429 85 85 73
-60.337 -28.999 4.547 168 163 144
-60.339 -28.783 4.566 165 157 138
-60.332 -28.566 4.584 166 158 139
-60.316 -28.350 4.601 165 157 138
-60.297 -28.132 4.618 164 156 137
-60.271 -27.913 4.636 166 159 140
-60.240 -27.694 4.653 156 144 122
-60.188 -27.481 4.666 122 106 81
-60.116 -27.276 4.674 160 145 126
-60.036 -27.073 4.680 158 147 127
-59.944 -26.876 4.685 151 138 119
-59.837 -26.687 4.685 126 114 98
-59.759 -26.479 4.698 88 85 76
-59.691 -26.262 4.717 109 108 103
-59.617 -26.045 4.736 119 118 113
-59.533 -25.832 4.753 134 133 128
-59.442 -25.621 4.770 142 141 136
-59.346 -25.409 4.787 106 108 97
-59.245 -25.199 4.805 81 80 75
-59.140 -24.988 4.823 28 26 29
-59.027 -24.780 4.841 44 49 55
-58.909 -24.573 4.859 66 71 75
-58.785 -24.368 4.878 74 78 81
-58.657 -24.162 4.897 99 100 102
-58.524 -23.958 4.917 42 42 42
-58.386 -23.754 4.937 30 26 23
-58.243 -23.550 4.958 96 92 83
-58.097 -23.346 4.981 158 150 137
-57.946 -23.142 5.004 154 146 127
-57.776 -22.959 5.021 155 147 126
-57.604 -22.774 5.039 155 147 126
-57.426 -22.592 5.058 155 147 124
-57.239 -22.419 5.075 154 146 123
-57.048 -22.250 5.092 154 143 123
-56.851 -22.085 5.109 151 140 120
-56.650 -21.922 5.126 152 144 123
-56.442 -21.766 5.143 152 146 124
-56.229 -21.616 5.159 155 144 124
-56.010 -21.473 5.175 155 144 124
-55.787 -21.335 5.191 155 144 124
-55.558 -21.204 5.206 155 144 124
-55.326 -21.078 5.221 152 144 125
-55.089 -20.957 5.236 152 144 125
-54.848 -20.842 5.251 151 143 124
-54.602 -20.734 5.266 151 143 124
-54.353 -20.633 5.280 151 143 124
-54.100 -20.539 5.294 151 143 124
-53.844 -20.451 5.308 150 142 123
-53.584 -20.369 5.322 149 141 122
-53.322 -20.292 5.337 156 144 122
-53.056 -20.226 5.350 150 138 114
-52.787 -20.167 5.362 147 136 116
-52.517 -20.107 5.378 145 134 114
-50.749 -33.598 2.798 156 148 145
-50.774 -33.691 2.817 186 176 167
-50.805 -33.778 2.834 185 176 167
-50.840 -33.865 2.851 176 167 160
-50.863 -33.981 2.877 180 172 161
-50.899 -34.080 2.898 184 175 160
-50.944 -34.169 2.915 181 170 150
