ply
format ascii 1.0
element vertex 1479
property float x
property float y
property float z
property uchar red
property uchar green
property uchar blue
end_header
-12.043 -23.869 -14.041 137 109 98
-11.849 -10.399 -43.199 97 102 96
-11.324 -10.406 -43.199 95 100 96
-10.800 -10.425 -43.199 100 104 103
-10.276 -10.457 -43.199 96 100 101
-9.754 -10.502 -43.199 97 101 102
-9.232 -10.560 -43.199 97 101 102
-8.712 -10.631 -43.199 98 102 103
-8.194 -10.714 -43.199 97 101 102
-7.678 -10.810 -43.199 105 107 106
-7.165 -10.919 -43.199 108 110 109
-6.655 -11.040 -43.199 106 108 107
-6.147 -11.174 -43.199 110 112 111
-5.643 -11.320 -43.199 110 112 111
-5.143 -11.478 -43.199 113 115 114
-4.647 -11.649 -43.199 124 126 125
-4.155 -11.832 -43.199 122 124 123
-3.668 -12.027 -43.199 124 128 131
-3.186 -12.233 -43.199 119 122 127
-2.709 -12.452 -43.199 107 110 115
-2.237 -12.682 -43.199 98 101 106
-1.772 -12.923 -43.199 91 96 99
-1.312 -13.176 -43.199 79 84 87
-0.859 -13.441 -43.199 62 67 70
-0.412 -13.716 -43.199 51 56 59
0.028 -14.002 -43.199 48 53 56
0.460 -14.299 -43.199 35 43 45
0.886 -14.606 -43.199 33 41 43
1.303 -14.924 -43.199 27 35 37
1.713 -15.252 -43.199 25 33 35
2.114 -15.590 -43.199 27 35 37
2.507 -15.937 -43.199 32 40 42
2.892 -16.294 -43.199 24 32 34
3.267 -16.661 -43.199 25 30 34
3.634 -17.036 -43.199 26 31 35
3.991 -17.421 -43.199 26 31 35
4.338 -17.814 -43.199 25 30 34
4.676 -18.215 -43.199 26 31 35
5.004 -18.625 -43.199 25 30 34
5.322 -19.042 -43.199 21 26 30
5.629 -19.467 -43.199 21 26 30
5.926 -19.900 -43.199 19 26 32
6.212 -20.340 -43.199 21 28 34
6.487 -20.787 -43.199 20 27 33
6.751 -21.240 -43.199 19 26 32
7.004 -21.700 -43.199 21 28 34
7.246 -22.165 -43.199 21 28 34
7.476 -22.637 -43.199 21 28 34
7.695 -23.114 -43.199 21 28 34
7.901 -23.596 -43.199 20 29 34
8.096 -24.083 -43.199 20 29 34
8.279 -24.575 -43.199 20 29 34
8.450 -25.071 -43.199 21 30 35
8.608 -25.571 -43.199 22 29 35
8.754 -26.075 -43.199 22 29 35
8.888 -26.583 -43.199 20 27 33
9.009 -27.093 -43.199 20 27 33
9.118 -27.606 -43.199 20 29 34
9.214 -28.122 -43.199 20 29 34
9.297 -28.640 -43.199 21 30 35
9.348 -29.163 -43.157 19 28 33
9.375 -29.687 -43.093 20 29 34
9.390 -30.210 -43.028 20 29 34
9.391 -30.734 -42.962 20 29 34
9.380 -31.256 -42.898 21 30 35
9.356 -31.777 -42.835 21 30 35
9.322 -32.297 -42.775 21 30 35
9.274 -32.815 -42.714 20 29 34
9.212 -33.331 -42.652 21 30 35
9.137 -33.844 -42.586 22 29 35
9.052 -34.355 -42.526 22 29 35
8.955 -34.863 -42.468 22 29 35
8.845 -35.368 -42.407 23 30 36
8.722 -35.869 -42.345 23 30 36
8.585 -36.366 -42.280 23 30 36
8.437 -36.858 -42.216 24 31 37
8.278 -37.347 -42.154 24 31 37
8.105 -37.830 -42.088 24 31 37
7.918 -38.307 -42.015 25 32 38
7.716 -38.778 -41.936 26 33 39
7.503 -39.242 -41.856 25 32 38
7.281 -39.701 -41.779 25 32 40
7.048 -40.154 -41.704 25 32 40
6.804 -40.599 -41.628 26 33 41
6.549 -41.038 -41.550 26 33 41
6.284 -41.469 -41.472 26 33 41
6.010 -41.894 -41.398 26 33 39
5.727 -42.312 -41.326 29 37 40
5.434 -42.722 -41.254 28 36 39
5.132 -43.123 -41.180 28 36 39
4.820 -43.517 -41.108 27 34 40
4.502 -43.904 -41.041 26 33 39
4.177 -44.284 -40.981 28 35 41
3.843 -44.655 -40.921 27 34 40
3.501 -45.018 -40.860 27 34 40
3.149 -45.370 -40.797 27 34 40
2.792 -45.716 -40.741 27 34 40
2.428 -46.054 -40.689 28 35 41
2.056 -46.381 -40.635 28 35 41
1.674 -46.698 -40.577 28 35 41
1.283 -47.001 -40.509 28 35 41
0.885 -47.294 -40.441 30 35 41
0.482 -47.577 -40.376 29 36 42
0.073 -47.851 -40.313 28 37 42
-0.344 -48.114 -40.247 28 39 43
-0.767 -48.363 -40.175 29 38 43
-1.195 -48.601 -40.105 29 38 43
-1.628 -48.830 -40.037 29 38 43
-2.065 -49.049 -39.970 29 38 43
-2.507 -49.255 -39.901 29 40 46
-2.955 -49.447 -39.826 29 38 45
-3.407 -49.627 -39.749 30 37 45
-3.861 -49.798 -39.677 34 38 47
-4.318 -49.958 -39.607 31 38 44
-4.778 -50.108 -39.540 30 39 44
-5.241 -50.247 -39.475 30 39 44
-5.705 -50.374 -39.410 31 40 45
-6.172 -50.492 -39.350 33 40 48
-6.640 -50.601 -39.295 33 40 48
-7.109 -50.698 -39.242 31 38 46
-7.581 -50.783 -39.186 32 39 47
-8.054 -50.854 -39.125 32 39 45
-8.528 -50.915 -39.068 32 39 45
-9.002 -50.967 -39.018 33 40 46
-9.477 -51.010 -38.973 33 40 46
-9.952 -51.041 -38.928 33 40 48
-10.427 -51.060 -38.881 33 40 48
-10.901 -51.068 -38.837 33 40 48
-11.375 -51.068 -38.800 33 40 48
-11.849 -51.057 -38.765 34 41 51
-12.322 -51.035 -38.729 35 42 50
-12.793 -50.997 -38.687 35 42 48
-13.263 -50.946 -38.640 39 47 50
-13.731 -50.885 -38.597 40 47 53
-14.197 -50.815 -38.556 42 49 55
-14.661 -50.733 -38.517 41 48 54
-15.122 -50.638 -38.475 44 51 57
-15.580 -50.532 -38.431 46 53 59
-16.034 -50.415 -38.388 41 48 54
-16.486 -50.289 -38.349 40 47 53
-16.934 -50.152 -38.311 38 45 51
-17.378 -50.003 -38.269 41 46 50
-17.817 -49.842 -38.226 42 47 51
-18.252 -49.673 -38.187 42 47 51
-18.683 -49.494 -38.150 42 47 51
-19.110 -49.305 -38.114 41 48 54
-19.531 -49.107 -38.079 41 48 54
-19.946 -48.897 -38.041 43 50 56
-20.356 -48.677 -38.004 43 50 56
-20.760 -48.449 -37.969 46 51 57
-21.158 -48.210 -37.932 45 50 56
-21.548 -47.959 -37.889 46 51 57
-21.930 -47.697 -37.841 45 50 56
-22.307 -47.428 -37.799 37 44 50
-22.677 -47.151 -37.758 37 44 50
-23.038 -46.863 -37.712 36 43 49
-23.389 -46.564 -37.658 35 42 48
-23.730 -46.253 -37.596 31 39 42
-24.060 -45.933 -37.526 31 39 42
-24.377 -45.599 -37.443 31 38 44
-24.682 -45.256 -37.350 32 39 47
-24.978 -44.906 -37.258 32 43 47
-25.264 -44.549 -37.161 35 44 49
-25.548 -44.193 -37.090 50 55 59
-25.835 -43.841 -37.052 84 88 91
-26.102 -43.474 -36.986 56 59 64
-26.376 -43.114 -36.960 45 50 54
-26.649 -42.753 -36.957 40 45 49
-26.915 -42.387 -36.961 40 45 49
-27.173 -42.016 -36.966 36 41 45
-27.423 -41.639 -36.975 38 43 47
-27.659 -41.253 -36.972 34 39 43
-27.879 -40.858 -36.953 31 36 40
-28.086 -40.456 -36.927 27 32 36
-28.277 -40.046 -36.886 23 28 34
-28.446 -39.627 -36.819 22 26 35
-28.600 -39.202 -36.740 16 20 29
-28.739 -38.773 -36.653 18 22 31
-28.876 -38.345 -36.586 16 21 27
-29.016 -37.920 -36.551 15 20 26
-29.152 -37.493 -36.528 18 23 29
-29.279 -37.064 -36.511 17 25 28
-29.394 -36.632 -36.490 18 26 29
-29.500 -36.198 -36.472 16 24 27
-29.595 -35.762 -36.455 24 32 35
-29.678 -35.323 -36.434 27 32 38
-29.746 -34.882 -36.405 29 34 40
-29.797 -34.439 -36.363 32 37 43
-29.833 -33.995 -36.312 33 38 44
-29.851 -33.550 -36.247 37 42 46
-29.859 -33.105 -36.183 42 47 51
-29.862 -32.662 -36.132 51 56 60
-29.864 -32.219 -36.100 56 61 65
-29.863 -31.777 -36.087 58 64 64
-29.866 -31.335 -36.105 66 70 69
-29.861 -30.892 -36.130 50 52 51
-29.852 -30.449 -36.167 43 43 43
-29.831 -30.006 -36.204 40 44 43
-29.795 -29.564 -36.232 42 46 45
-29.740 -29.123 -36.242 36 40 39
-29.676 -28.684 -36.256 39 43 42
-29.594 -28.247 -36.254 43 47 48
-29.497 -27.814 -36.242 41 42 44
-29.375 -27.387 -36.201 35 36 38
-29.240 -26.964 -36.151 39 40 42
-29.096 -26.545 -36.108 37 41 42
-28.904 -26.143 -35.977 42 43 45
-28.649 -25.766 -35.726 118 116 117
-28.633 -25.303 -36.034 35 37 34
-28.506 -24.878 -36.119 33 38 41
-28.354 -24.461 -36.171 34 41 47
-28.184 -24.051 -36.206 32 39 47
-28.002 -23.646 -36.234 30 37 45
-27.799 -23.252 -36.238 32 39 45
-27.579 -22.866 -36.224 74 78 79
-27.351 -22.486 -36.212 43 43 41
-27.108 -22.115 -36.186 68 74 72
-26.855 -21.750 -36.158 31 36 40
-26.611 -21.381 -36.175 33 38 44
-26.323 -21.043 -36.100 36 41 47
-26.050 -20.694 -36.086 38 43 49
-25.756 -20.363 -36.039 31 38 44
-25.457 -20.039 -35.996 32 42 44
-25.152 -19.720 -35.961 32 40 42
-24.844 -19.404 -35.938 32 37 40
-24.532 -19.094 -35.922 40 41 36
-23.303 -19.747 -33.120 53 46 40
-17.263 -25.804 -15.045 117 99 95
-17.095 -25.695 -14.982 119 102 94
-16.933 -25.583 -14.943 113 99 86
-16.765 -25.478 -14.893 118 104 91
-16.607 -25.362 -14.887 122 108 95
-16.447 -25.249 -14.882 124 110 97
-16.278 -25.148 -14.857 127 108 93
-16.107 -25.052 -14.829 132 109 95
-15.936 -24.959 -14.807 127 101 88
-15.763 -24.868 -14.788 132 104 92
-15.589 -24.780 -14.774 137 109 97
-15.414 -24.695 -14.763 137 108 94
-15.237 -24.613 -14.756 148 116 101
-15.059 -24.536 -14.746 135 104 86
-14.876 -24.469 -14.724 131 103 89
-14.691 -24.409 -14.698 127 101 86
-14.505 -24.353 -14.671 130 102 88
-14.320 -24.298 -14.653 132 103 89
-14.134 -24.245 -14.643 136 109 98
-13.947 -24.197 -14.629 133 109 99
-13.759 -24.150 -14.624 126 102 92
-13.571 -24.110 -14.614 129 105 95
-13.381 -24.075 -14.603 128 105 91
-13.190 -24.047 -14.589 128 107 90
-12.999 -24.024 -14.572 130 107 91
-12.808 -24.005 -14.557 129 106 90
-12.616 -23.989 -14.545 132 104 93
-12.425 -23.973 -14.546 130 102 91
-12.233 -23.967 -14.533 130 102 91
-12.040 -24.012 -14.423 134 106 95
-11.849 -11.142 -43.543 122 128 126
-11.343 -11.148 -43.543 118 124 124
-10.837 -11.166 -43.543 106 111 114
-10.331 -11.198 -43.543 96 101 104
-9.826 -11.241 -43.543 78 83 87
-9.323 -11.297 -43.543 59 64 68
-8.821 -11.365 -43.543 51 56 60
-8.321 -11.445 -43.543 41 46 50
-7.823 -11.538 -43.543 35 40 43
-7.328 -11.643 -43.543 34 39 42
-6.835 -11.760 -43.543 35 40 43
-6.345 -11.889 -43.543 26 31 34
-5.859 -12.030 -43.543 26 31 34
-5.376 -12.183 -43.543 26 31 34
-4.897 -12.348 -43.543 25 30 33
-4.422 -12.524 -43.543 27 32 35
-3.952 -12.712 -43.543 24 29 35
-3.487 -12.912 -43.543 24 28 37
-3.026 -13.123 -43.543 23 27 36
-2.571 -13.345 -43.543 23 27 36
-2.122 -13.578 -43.543 24 29 33
-1.678 -13.822 -43.543 22 30 33
-1.240 -14.077 -43.543 22 30 33
-0.809 -14.343 -43.543 21 29 32
-0.385 -14.619 -43.543 21 29 32
0.033 -14.906 -43.543 20 30 32
0.443 -15.203 -43.543 21 31 33
0.846 -15.509 -43.543 20 30 32
1.242 -15.826 -43.543 19 30 32
1.629 -16.152 -43.543 20 31 33
2.009 -16.487 -43.543 20 31 33
2.380 -16.832 -43.543 19 30 32
2.742 -17.186 -43.543 21 29 32
3.096 -17.548 -43.543 23 31 34
3.441 -17.919 -43.543 23 31 34
3.776 -18.299 -43.543 22 30 33
4.102 -18.686 -43.543 22 27 31
4.419 -19.081 -43.543 24 29 33
4.725 -19.485 -43.543 24 29 33
5.022 -19.895 -43.543 23 28 32
5.309 -20.313 -43.543 21 28 34
5.585 -20.737 -43.543 22 29 35
5.850 -21.168 -43.543 23 30 36
6.105 -21.606 -43.543 23 30 36
6.350 -22.050 -43.543 23 30 36
6.583 -22.499 -43.543 23 30 36
6.805 -22.954 -43.543 24 31 37
7.016 -23.415 -43.543 23 30 36
7.216 -23.880 -43.543 22 31 36
7.404 -24.350 -43.543 22 31 36
7.580 -24.825 -43.543 21 30 35
7.745 -25.304 -43.543 23 32 37
7.898 -25.787 -43.543 22 29 35
8.039 -26.273 -43.543 22 29 35
8.168 -26.763 -43.543 23 30 36
8.285 -27.256 -43.543 23 30 36
8.390 -27.751 -43.543 21 30 35
8.482 -28.249 -43.543 21 30 35
8.563 -28.749 -43.543 22 31 36
8.631 -29.251 -43.543 22 31 36
8.687 -29.754 -43.543 22 31 36
8.704 -30.261 -43.486 24 33 38
8.704 -30.767 -43.416 21 30 35
8.691 -31.273 -43.347 22 31 36
8.667 -31.777 -43.281 23 32 37
8.632 -32.280 -43.217 22 31 36
8.584 -32.781 -43.152 24 33 38
8.523 -33.280 -43.085 24 33 38
8.449 -33.776 -43.015 24 33 38
8.365 -34.270 -42.951 24 33 38
8.271 -34.762 -42.892 25 34 39
8.164 -35.250 -42.831 24 33 38
8.045 -35.734 -42.767 25 32 40
7.913 -36.215 -42.701 26 33 41
7.769 -36.691 -42.637 25 32 40
7.616 -37.164 -42.574 26 33 41
7.449 -37.631 -42.509 27 34 40
7.269 -38.093 -42.437 27 34 40
7.075 -38.548 -42.360 27 34 40
6.871 -38.998 -42.283 28 35 41
6.658 -39.443 -42.211 27 34 40
6.434 -39.881 -42.138 27 34 40
6.198 -40.313 -42.062 27 34 40
5.952 -40.737 -41.984 28 35 41
5.695 -41.155 -41.906 29 36 42
5.430 -41.566 -41.830 29 37 40
5.157 -41.970 -41.759 31 38 44
4.874 -42.367 -41.687 30 37 43
4.582 -42.756 -41.614 29 36 44
4.281 -43.137 -41.542 27 34 42
3.973 -43.511 -41.475 30 37 45
3.658 -43.879 -41.414 29 36 44
3.336 -44.239 -41.354 29 36 44
3.005 -44.590 -41.294 30 37 45
2.665 -44.932 -41.233 30 37 45
2.319 -45.266 -41.176 30 37 45
1.967 -45.593 -41.124 30 37 45
1.607 -45.910 -41.070 30 37 45
1.238 -46.217 -41.011 30 37 45
0.860 -46.510 -40.944 30 37 45
0.475 -46.794 -40.875 32 39 47
0.085 -47.068 -40.810 29 38 45
-0.311 -47.334 -40.747 29 40 46
-0.713 -47.589 -40.683 28 41 47
-1.122 -47.831 -40.614 31 40 45
-1.536 -48.063 -40.544 31 40 45
-1.955 -48.285 -40.476 31 40 45
-2.378 -48.497 -40.411 31 40 45
-2.805 -48.697 -40.343 30 41 47
-3.238 -48.884 -40.269 31 40 47
-3.675 -49.059 -40.194 33 40 48
-4.115 -49.226 -40.124 35 39 48
-4.557 -49.382 -40.057 34 41 47
-5.002 -49.528 -39.992 31 40 45
-5.449 -49.663 -39.925 30 39 44
-5.900 -49.786 -39.859 32 41 46
-6.352 -49.899 -39.796 33 40 48
-6.805 -50.004 -39.740 33 40 48
-7.260 -50.098 -39.685 32 39 47
-7.717 -50.179 -39.625 34 41 49
-8.175 -50.246 -39.562 33 40 46
-8.634 -50.304 -39.500 35 42 48
-9.094 -50.353 -39.447 34 41 47
-9.553 -50.395 -39.402 34 41 47
-10.012 -50.426 -39.358 36 43 51
-10.472 -50.444 -39.311 35 42 50
-10.932 -50.452 -39.266 34 41 49
-11.391 -50.451 -39.227 37 44 52
-11.849 -50.441 -39.192 37 44 54
-12.307 -50.420 -39.157 37 44 52
-12.763 -50.384 -39.116 37 44 50
-13.218 -50.336 -39.071 38 46 49
-13.671 -50.278 -39.031 41 48 54
-14.123 -50.212 -38.996 41 48 54
-14.572 -50.136 -38.962 43 50 56
-15.019 -50.047 -38.925 44 51 57
-15.463 -49.947 -38.888 46 53 59
-15.904 -49.837 -38.851 40 47 53
-16.343 -49.716 -38.816 38 45 51
-16.777 -49.586 -38.782 37 44 50
-17.208 -49.443 -38.744 37 42 48
-17.635 -49.291 -38.708 34 39 45
-18.058 -49.130 -38.676 33 38 44
-18.477 -48.960 -38.647 33 38 44
-18.892 -48.780 -38.618 28 35 43
-19.302 -48.590 -38.588 29 36 44
-19.705 -48.387 -38.553 30 37 45
-20.103 -48.175 -38.517 31 38 46
-20.495 -47.952 -38.480 33 37 46
-20.880 -47.720 -38.440 34 38 47
-21.259 -47.476 -38.396 33 37 46
-21.629 -47.221 -38.345 33 37 46
-21.992 -46.957 -38.293 36 41 47
-22.348 -46.684 -38.242 34 39 45
-22.697 -46.404 -38.192 30 35 41
-23.038 -46.115 -38.140 30 35 41
-23.370 -45.816 -38.083 29 34 38
-23.694 -45.509 -38.025 27 32 36
-24.011 -45.195 -37.969 27 32 38
-24.321 -44.877 -37.919 22 26 35
-24.626 -44.554 -37.879 18 25 33
-24.921 -44.223 -37.836 14 21 27
-25.211 -43.888 -37.802 23 28 34
-25.499 -43.552 -37.787 30 35 39
-25.775 -43.206 -37.760 28 33 37
-26.039 -42.851 -37.726 21 26 30
-26.295 -42.491 -37.695 23 28 32
-26.543 -42.126 -37.666 20 25 29
-26.785 -41.757 -37.645 19 24 27
-27.016 -41.382 -37.622 18 23 26
-27.236 -41.000 -37.593 20 25 28
-27.446 -40.612 -37.563 18 23 26
-27.639 -40.217 -37.516 20 25 29
-27.819 -39.816 -37.460 27 32 38
-27.989 -39.410 -37.404 31 35 44
-28.150 -39.003 -37.353 34 38 47
-28.301 -38.592 -37.302 36 40 49
-28.442 -38.178 -37.251 33 38 44
-28.577 -37.762 -37.211 32 37 43
-28.702 -37.345 -37.173 29 34 40
-28.816 -36.924 -37.132 26 33 39
-28.917 -36.500 -37.085 26 33 39
-29.012 -36.076 -37.050 25 32 38
-29.100 -35.651 -37.023 30 37 43
-29.178 -35.224 -36.994 31 36 42
-29.244 -34.795 -36.965 33 38 44
-29.298 -34.365 -36.931 34 39 45
-29.342 -33.935 -36.900 33 38 44
-29.372 -33.503 -36.862 33 37 46
-29.397 -33.071 -36.834 35 39 50
-29.420 -32.640 -36.828 36 40 51
-29.437 -32.209 -36.830 35 39 50
-29.443 -31.777 -36.830 29 38 47
-29.442 -31.345 -36.841 31 40 49
-29.430 -30.913 -36.848 34 43 52
-29.410 -30.482 -36.863 33 40 50
-29.383 -30.050 -36.886 31 38 48
-29.347 -29.619 -36.911 29 36 46
-29.295 -29.189 -36.925 28 35 45
-29.227 -28.762 -36.926 31 38 48
-29.149 -28.336 -36.930 31 40 49
-29.059 -27.912 -36.929 36 44 55
-28.952 -27.493 -36.914 33 41 52
-28.829 -27.078 -36.883 32 40 51
-28.693 -26.668 -36.847 34 38 47
-28.554 -26.258 -36.829 30 37 45
-28.404 -25.853 -36.807 34 39 45
-28.225 -25.460 -36.739 35 43 46
-28.061 -25.062 -36.728 31 39 42
-27.894 -24.665 -36.734 31 38 44
-27.711 -24.275 -36.727 28 35 43
-27.528 -23.885 -36.740 29 36 44
-27.326 -23.505 -36.731 37 42 46
-27.106 -23.134 -36.700 69 69 69
-26.887 -22.764 -36.694 81 80 78
-26.666 -22.394 -36.707 47 48 50
-26.417 -22.043 -36.670 45 52 58
-26.183 -21.682 -36.694 32 41 48
-25.923 -21.339 -36.672 37 46 53
-25.657 -21.001 -36.657 39 48 55
-25.363 -20.687 -36.583 73 82 91
-25.073 -20.370 -36.545 30 39 46
-24.778 -20.059 -36.510 36 43 49
-24.475 -19.756 -36.476 32 37 41
-24.169 -19.457 -36.452 31 45 46
-23.879 -19.141 -36.506 34 44 46
-23.571 -18.843 -36.525 46 45 50
-23.249 -18.561 -36.520 44 42 45
-22.924 -18.282 -36.530 35 36 38
-22.598 -18.003 -36.561 33 37 38
-22.267 -17.730 -36.598 33 37 38
-21.924 -17.472 -36.616 32 36 37
-21.571 -17.227 -36.622 37 37 39
-21.185 -17.033 -36.515 41 41 43
-19.910 -18.328 -32.607 40 38 41
-18.529 -19.986 -27.909 51 46 50
-18.139 -20.010 -27.448 56 48 46
-17.805 -19.945 -27.236 78 69 64
-15.755 -23.519 -18.160 97 86 82
-15.012 -24.643 -15.224 106 93 87
-14.831 -24.578 -15.197 116 99 89
-14.650 -24.515 -15.178 117 99 87
-14.470 -24.453 -15.169 134 116 104
-14.288 -24.395 -15.158 122 102 91
-14.105 -24.339 -15.154 129 105 95
-13.922 -24.287 -15.152 131 103 91
-13.738 -24.235 -15.159 134 104 93
-13.552 -24.192 -15.157 133 101 88
-13.364 -24.159 -15.144 130 101 87
-13.176 -24.132 -15.126 132 102 91
-12.986 -24.112 -15.103 133 101 90
-12.797 -24.093 -15.087 134 100 90
-12.607 -24.080 -15.071 127 99 88
-12.418 -24.070 -15.055 126 99 88
-12.228 -24.071 -15.028 130 103 92
-12.037 -24.130 -14.883 130 103 92
-11.849 -11.890 -43.875 26 34 36
-11.361 -11.896 -43.875 24 32 34
-10.873 -11.914 -43.875 23 31 34
-10.386 -11.943 -43.875 24 31 37
-9.900 -11.985 -43.875 23 30 38
-9.415 -12.039 -43.875 26 33 41
-8.931 -12.105 -43.875 27 34 42
-8.449 -12.182 -43.875 23 30 38
-7.969 -12.272 -43.875 21 28 34
-7.492 -12.373 -43.875 21 30 35
-7.017 -12.486 -43.875 21 30 35
-6.545 -12.610 -43.875 22 31 36
-6.076 -12.746 -43.875 20 29 34
-5.611 -12.893 -43.875 20 29 34
-5.149 -13.052 -43.875 21 30 35
-4.692 -13.222 -43.875 22 31 36
-4.238 -13.403 -43.875 21 29 32
-3.790 -13.596 -43.875 21 29 32
-3.346 -13.799 -43.875 22 30 33
-2.907 -14.013 -43.875 22 30 33
-2.474 -14.238 -43.875 22 29 35
-2.047 -14.473 -43.875 21 30 35
-1.625 -14.719 -43.875 22 31 36
-1.209 -14.975 -43.875 21 30 35
-0.800 -15.241 -43.875 22 31 36
-0.398 -15.517 -43.875 22 31 36
-0.002 -15.803 -43.875 23 32 37
0.386 -16.099 -43.875 22 31 36
0.767 -16.404 -43.875 22 31 36
1.141 -16.718 -43.875 23 32 37
1.507 -17.041 -43.875 21 30 35
1.864 -17.374 -43.875 23 32 37
2.213 -17.714 -43.875 22 32 34
2.554 -18.064 -43.875 24 34 36
2.887 -18.421 -43.875 22 32 34
3.210 -18.787 -43.875 23 33 35
3.524 -19.161 -43.875 24 29 33
3.829 -19.542 -43.875 26 31 35
4.125 -19.930 -43.875 24 29 33
4.411 -20.326 -43.875 26 31 35
4.687 -20.728 -43.875 23 30 36
4.953 -21.137 -43.875 26 33 39
5.209 -21.553 -43.875 25 32 38
5.455 -21.975 -43.875 25 32 38
5.690 -22.402 -43.875 25 32 38
5.915 -22.835 -43.875 25 32 38
6.129 -23.274 -43.875 25 32 38
6.332 -23.718 -43.875 25 32 38
6.525 -24.166 -43.875 23 32 37
6.706 -24.620 -43.875 23 32 37
6.876 -25.077 -43.875 22 31 36
7.035 -25.539 -43.875 24 33 38
7.182 -26.004 -43.875 23 30 36
7.318 -26.473 -43.875 23 30 36
7.442 -26.945 -43.875 24 31 37
7.555 -27.420 -43.875 24 31 37
7.656 -27.897 -43.875 23 32 37
7.746 -28.377 -43.875 23 32 37
7.823 -28.859 -43.875 23 32 37
7.889 -29.343 -43.875 23 32 37
7.943 -29.828 -43.875 23 32 37
7.984 -30.314 -43.875 23 32 37
7.990 -30.802 -43.819 26 35 40
7.977 -31.290 -43.748 24 33 38
7.953 -31.777 -43.677 24 33 38
7.917 -32.262 -43.609 24 33 38
7.869 -32.746 -43.540 25 34 39
7.809 -33.227 -43.468 25 34 39
7.736 -33.706 -43.395 25 34 39
7.654 -34.182 -43.329 25 34 39
7.563 -34.656 -43.268 26 35 40
7.460 -35.127 -43.205 25 34 39
7.344 -35.595 -43.141 26 33 41
7.217 -36.058 -43.074 27 34 42
7.078 -36.518 -43.009 27 34 42
6.930 -36.974 -42.946 28 35 43
6.770 -37.425 -42.881 29 36 42
6.596 -37.870 -42.808 29 36 42
6.410 -38.310 -42.733 28 35 41
6.214 -38.745 -42.659 29 36 42
6.009 -39.174 -42.586 29 37 40
5.793 -39.597 -42.514 29 37 40
5.566 -40.014 -42.438 29 37 40
5.329 -40.424 -42.361 30 38 41
5.082 -40.827 -42.285 30 38 40
4.827 -41.224 -42.211 30 38 41
4.565 -41.615 -42.142 32 39 45
4.292 -41.998 -42.071 31 38 46
4.011 -42.375 -42.001 31 38 46
3.722 -42.744 -41.933 29 36 44
3.426 -43.106 -41.869 30 37 45
3.123 -43.461 -41.809 30 37 45
2.812 -43.809 -41.749 30 37 45
2.493 -44.148 -41.690 31 38 46
2.165 -44.479 -41.630 32 39 47
1.832 -44.802 -41.574 32 39 47
1.492 -45.118 -41.522 32 39 47
1.144 -45.424 -41.467 32 39 47
0.788 -45.720 -41.408 33 40 48
0.424 -46.004 -41.342 33 40 48
0.052 -46.279 -41.275 32 41 48
-0.324 -46.545 -41.212 30 41 47
-0.706 -46.802 -41.150 28 41 47
-1.094 -47.048 -41.086 29 42 48
-1.489 -47.283 -41.017 31 42 46
-1.888 -47.507 -40.948 31 42 46
-2.292 -47.722 -40.881 31 42 46
-2.700 -47.928 -40.819 31 42 46
-3.112 -48.123 -40.753 32 43 49
-3.530 -48.305 -40.682 33 42 49
-3.951 -48.476 -40.611 34 41 49
-4.375 -48.638 -40.545 36 40 49
-4.801 -48.792 -40.482 32 41 46
-5.231 -48.934 -40.419 32 43 47
-5.663 -49.065 -40.353 34 45 49
-6.099 -49.184 -40.288 34 45 49
-6.535 -49.294 -40.225 34 41 49
-6.973 -49.395 -40.168 34 41 49
-7.413 -49.486 -40.111 37 44 52
-7.855 -49.564 -40.051 37 44 52
-8.298 -49.631 -39.990 34 41 47
-8.741 -49.687 -39.932 36 43 49
-9.185 -49.737 -39.882 40 47 53
-9.629 -49.779 -39.840 37 44 50
-10.073 -49.811 -39.800 34 41 49
-10.517 -49.831 -39.759 33 40 48
-10.962 -49.841 -39.718 29 36 44
-11.406 -49.842 -39.683 28 35 43
-11.849 -49.833 -39.650 24 31 41
-12.292 -49.813 -39.616 25 32 40
-12.733 -49.779 -39.576 27 34 40
-13.174 -49.733 -39.533 28 36 39
-13.612 -49.678 -39.492 29 36 42
-14.049 -49.615 -39.460 28 35 41
-14.484 -49.542 -39.427 35 42 48
-14.917 -49.457 -39.392 36 43 49
-15.347 -49.360 -39.355 30 37 43
-15.773 -49.253 -39.316 29 36 42
-16.197 -49.136 -39.279 28 35 41
-16.618 -49.008 -39.242 27 34 40
-17.034 -48.870 -39.203 27 31 40
-17.447 -48.722 -39.166 29 33 42
-17.856 -48.565 -39.131 30 34 43
-18.261 -48.399 -39.097 28 32 41
-18.661 -48.223 -39.062 22 29 37
-19.056 -48.036 -39.024 21 28 36
-19.445 -47.837 -38.980 19 26 34
-19.828 -47.629 -38.936 18 25 33
-20.206 -47.412 -38.895 18 23 29
-20.578 -47.187 -38.853 14 19 25
-20.944 -46.951 -38.807 16 21 27
-21.301 -46.704 -38.755 14 19 25
-21.652 -46.447 -38.700 13 16 23
-21.995 -46.184 -38.647 14 17 24
-22.334 -45.914 -38.599 15 18 25
-22.665 -45.636 -38.553 15 18 25
-22.988 -45.350 -38.503 17 20 25
-23.305 -45.057 -38.456 15 18 23
-23.615 -44.759 -38.414 17 20 27
-23.920 -44.455 -38.381 18 21 30
-24.218 -44.146 -38.350 17 21 32
-24.509 -43.831 -38.323 17 21 30
-24.794 -43.510 -38.301 19 26 32
-25.072 -43.183 -38.281 25 32 38
-25.341 -42.850 -38.262 48 53 57
-25.601 -42.509 -38.239 52 57 61
-25.851 -42.162 -38.213 52 57 61
-26.094 -41.809 -38.190 51 56 60
-26.329 -41.452 -38.172 50 55 58
-26.554 -41.089 -38.150 51 56 59
-26.768 -40.719 -38.122 45 50 53
-26.969 -40.342 -38.085 70 75 78
-27.152 -39.956 -38.025 24 29 33
-27.322 -39.565 -37.958 33 38 44
-27.485 -39.172 -37.899 30 34 43
-27.642 -38.777 -37.848 30 34 43
-27.790 -38.380 -37.802 32 36 45
-27.928 -37.979 -37.754 30 35 41
-28.059 -37.577 -37.714 30 35 41
-28.181 -37.172 -37.676 30 35 41
-28.294 -36.765 -37.641 29 36 44
-28.397 -36.356 -37.606 29 36 44
-28.493 -35.946 -37.579 32 39 47
-28.581 -35.534 -37.556 33 40 48
-28.657 -35.120 -37.530 43 48 54
-28.722 -34.705 -37.502 34 39 45
-28.779 -34.288 -37.480 32 37 43
-28.827 -33.871 -37.459 33 38 44
-28.865 -33.453 -37.442 33 37 46
-28.895 -33.034 -37.428 31 35 44
-28.919 -32.616 -37.424 33 37 46
-28.936 -32.196 -37.426 30 34 43
-28.941 -31.777 -37.426 25 34 39
-28.937 -31.357 -37.430 25 34 39
-28.926 -30.938 -37.438 24 31 37
-28.904 -30.519 -37.449 24 29 35
-28.873 -30.100 -37.460 23 28 34
-28.831 -29.682 -37.470 22 27 33
-28.775 -29.266 -37.470 22 27 33
-28.704 -28.852 -37.460 21 26 32
-28.626 -28.440 -37.457 17 24 30
-28.538 -28.029 -37.456 20 27 35
-28.438 -27.622 -37.449 20 27 35
-28.325 -27.217 -37.435 24 31 39
-28.200 -26.817 -37.414 24 27 36
-28.060 -26.422 -37.382 24 31 39
-27.910 -26.030 -37.348 21 30 35
-27.745 -25.645 -37.302 29 34 38
-27.579 -25.262 -37.273 31 36 40
-27.408 -24.880 -37.259 30 37 43
-27.230 -24.502 -37.248 28 35 43
-27.046 -24.127 -37.246 27 34 42
-26.849 -23.759 -37.233 26 35 40
-26.642 -23.397 -37.218 34 39 42
-26.427 -23.040 -37.204 35 36 40
-26.205 -22.686 -37.197 31 35 44
-25.970 -22.342 -37.176 38 45 53
-25.738 -21.995 -37.186 33 40 46
-25.490 -21.660 -37.176 33 40 46
-25.234 -21.331 -37.166 30 37 43
-24.967 -21.011 -37.146 33 40 46
-24.699 -20.693 -37.145 28 33 39
-24.417 -20.386 -37.125 48 53 57
-24.129 -20.086 -37.111 42 46 49
-23.840 -19.786 -37.117 47 57 58
-23.541 -19.497 -37.112 43 51 53
-23.239 -19.211 -37.122 45 49 52
-22.926 -18.936 -37.118 48 56 58
-22.603 -18.673 -37.104 30 37 45
-22.278 -18.413 -37.102 28 35 45
-21.950 -18.158 -37.113 26 33 43
-21.615 -17.910 -37.124 23 30 40
-21.274 -17.671 -37.133 26 36 45
-20.924 -17.447 -37.127 26 36 45
-20.566 -17.234 -37.112 24 33 42
-20.207 -17.024 -37.112 32 39 49
-19.843 -16.821 -37.119 41 50 57
-19.474 -16.628 -37.121 26 35 42
-19.096 -16.454 -37.100 26 33 39
-18.721 -16.275 -37.114 29 34 38
-18.334 -16.121 -37.088 33 37 38
-17.941 -15.985 -37.044 36 38 37
-17.536 -15.884 -36.938 36 36 36
-17.108 -15.858 -36.672 42 42 42
-15.533 -19.634 -27.271 50 44 44
-14.546 -22.031 -21.325 68 60 57
-14.299 -21.995 -21.261 96 83 77
-13.746 -23.330 -17.969 110 96 87
-13.339 -24.286 -15.618 122 105 97
-13.153 -24.265 -15.588 121 102 95
-12.966 -24.248 -15.556 125 102 96
-12.780 -24.230 -15.541 129 101 97
-12.594 -24.216 -15.526 127 103 93
-12.408 -24.204 -15.517 126 102 90
-12.221 -24.200 -15.499 126 102 90
-12.033 -24.289 -15.277 127 103 91
-11.849 -12.643 -44.194 11 19 22
-11.379 -12.649 -44.194 15 23 26
-10.910 -12.666 -44.194 12 20 23
-10.441 -12.695 -44.194 17 25 28
-9.974 -12.735 -44.194 18 25 31
-9.507 -12.787 -44.194 19 26 32
-9.041 -12.850 -44.194 20 27 33
-8.578 -12.925 -44.194 25 32 38
-8.116 -13.010 -44.194 25 34 39
-7.657 -13.108 -44.194 27 38 42
-7.200 -13.216 -44.194 25 36 40
-6.746 -13.336 -44.194 28 39 43
-6.295 -13.467 -44.194 29 40 42
-5.847 -13.609 -44.194 23 34 36
-5.403 -13.761 -44.194 21 32 34
-4.963 -13.925 -44.194 24 35 37
-4.527 -14.099 -44.194 22 30 32
-4.095 -14.284 -44.194 26 34 37
-3.668 -14.480 -44.194 24 32 35
-3.246 -14.686 -44.194 25 32 38
-2.829 -14.902 -44.194 24 31 37
-2.418 -15.129 -44.194 22 30 33
-2.012 -15.365 -44.194 24 32 35
-1.612 -15.611 -44.194 22 30 33
-1.219 -15.867 -44.194 24 31 37
-0.831 -16.133 -44.194 24 31 37
-0.451 -16.408 -44.194 24 31 37
-0.077 -16.693 -44.194 24 31 37
0.290 -16.986 -44.194 25 32 38
0.649 -17.288 -44.194 25 32 38
1.001 -17.599 -44.194 23 30 36
1.345 -17.919 -44.194 24 31 37
1.681 -18.247 -44.194 26 34 36
2.009 -18.583 -44.194 26 34 36
2.328 -18.927 -44.194 27 35 38
2.640 -19.279 -44.194 27 35 38
2.942 -19.638 -44.194 27 35 38
3.235 -20.005 -44.194 26 34 37
3.520 -20.379 -44.194 25 33 36
3.795 -20.759 -44.194 25 33 36
4.060 -21.147 -44.194 25 32 38
4.317 -21.540 -44.194 27 34 40
4.563 -21.940 -44.194 27 34 40
4.799 -22.346 -44.194 26 33 39
5.026 -22.757 -44.194 28 35 41
5.242 -23.174 -44.194 27 34 40
5.448 -23.596 -44.194 25 32 38
5.644 -24.023 -44.194 25 32 38
5.829 -24.455 -44.194 25 32 40
6.003 -24.891 -44.194 27 34 42
6.167 -25.331 -44.194 26 33 41
6.319 -25.775 -44.194 26 33 41
6.461 -26.223 -44.194 25 32 38
6.592 -26.674 -44.194 24 31 37
6.712 -27.128 -44.194 24 31 37
6.820 -27.585 -44.194 24 31 37
6.917 -28.044 -44.194 27 34 40
7.003 -28.506 -44.194 26 33 39
7.078 -28.969 -44.194 24 31 37
7.141 -29.435 -44.194 24 31 37
7.193 -29.902 -44.194 25 32 38
7.233 -30.369 -44.194 25 32 38
7.262 -30.838 -44.194 24 31 37
7.256 -31.308 -44.137 25 32 38
7.231 -31.777 -44.063 25 32 40
7.195 -32.244 -43.990 25 32 40
7.147 -32.710 -43.917 25 32 40
7.088 -33.174 -43.843 27 34 42
7.018 -33.635 -43.769 27 34 40
6.939 -34.094 -43.702 28 36 39
6.851 -34.551 -43.641 28 36 39
6.753 -35.005 -43.579 28 36 39
6.642 -35.455 -43.517 27 34 42
6.520 -35.902 -43.451 28 35 43
6.387 -36.345 -43.385 29 36 44
6.244 -36.784 -43.322 29 36 44
6.090 -37.219 -43.258 30 37 45
5.924 -37.648 -43.188 30 37 45
5.746 -38.073 -43.115 29 36 44
5.558 -38.492 -43.043 30 37 45
5.361 -38.906 -42.973 30 37 45
5.154 -39.314 -42.901 32 39 47
4.936 -39.716 -42.826 33 40 48
4.708 -40.111 -42.750 31 38 46
4.471 -40.500 -42.674 33 40 46
4.226 -40.883 -42.602 32 39 45
3.973 -41.260 -42.534 34 41 49
3.712 -41.631 -42.466 31 38 46
3.442 -41.994 -42.398 32 39 47
3.164 -42.351 -42.333 31 38 46
2.880 -42.701 -42.272 30 37 45
2.589 -43.044 -42.214 31 38 46
2.289 -43.380 -42.156 32 39 47
1.982 -43.708 -42.098 33 40 48
1.667 -44.027 -42.038 30 37 45
1.345 -44.339 -41.983 31 38 46
1.018 -44.644 -41.930 32 39 47
0.682 -44.939 -41.875 33 40 48
0.339 -45.225 -41.817 34 41 49
-0.012 -45.500 -41.752 33 40 48
-0.369 -45.765 -41.688 32 39 47
-0.732 -46.023 -41.626 32 39 47
-1.100 -46.271 -41.564 31 40 47
-1.474 -46.508 -41.498 33 42 49
-1.855 -46.734 -41.428 34 43 50
-2.241 -46.950 -41.359 35 42 50
-2.630 -47.159 -41.295 35 42 50
-3.022 -47.359 -41.236 36 43 51
-3.419 -47.549 -41.175 36 43 51
-3.820 -47.727 -41.111 31 38 46
-4.226 -47.896 -41.047 33 40 48
-4.633 -48.055 -40.987 30 37 45
-5.044 -48.206 -40.931 27 34 42
-5.458 -48.346 -40.875 24 31 39
-5.874 -48.475 -40.816 20 27 35
-6.294 -48.593 -40.754 20 27 35
-6.716 -48.700 -40.694 19 26 34
-7.138 -48.800 -40.642 23 27 36
-7.563 -48.890 -40.590 24 28 37
-7.989 -48.968 -40.536 24 28 37
-8.416 -49.034 -40.478 22 29 37
-8.845 -49.091 -40.423 21 30 39
-9.274 -49.139 -40.375 22 31 40
-9.703 -49.179 -40.330 23 32 41
-10.132 -49.207 -40.284 28 37 44
-10.562 -49.223 -40.234 26 35 40
-10.992 -49.228 -40.182 22 31 36
-11.421 -49.225 -40.136 25 34 39
-11.849 -49.215 -40.099 26 33 41
-12.277 -49.195 -40.064 28 32 41
-12.703 -49.163 -40.024 33 37 46
-13.128 -49.119 -39.980 33 37 46
-13.552 -49.065 -39.938 32 36 45
-13.974 -49.004 -39.904 35 39 48
-14.394 -48.933 -39.870 35 39 48
-14.811 -48.850 -39.833 30 34 43
-15.226 -48.755 -39.792 30 35 41
-15.638 -48.651 -39.753 30 35 41
-16.048 -48.539 -39.718 22 27 33
-16.454 -48.418 -39.685 19 24 30
-16.857 -48.286 -39.648 11 16 22
-17.255 -48.142 -39.608 9 14 20
-17.650 -47.989 -39.570 10 15 21
-18.041 -47.829 -39.536 11 16 22
-18.428 -47.659 -39.502 11 16 22
-18.809 -47.478 -39.462 12 16 25
-19.184 -47.285 -39.416 14 18 27
-19.553 -47.083 -39.368 15 19 28
-19.918 -46.872 -39.322 14 21 27
-20.277 -46.654 -39.278 17 24 30
-20.629 -46.426 -39.231 23 30 36
-20.974 -46.188 -39.179 22 29 35
-21.312 -45.939 -39.121 27 32 35
-21.643 -45.684 -39.065 32 37 40
-21.971 -45.425 -39.023 30 35 38
-22.295 -45.162 -38.989 36 41 44
-22.611 -44.890 -38.954 40 45 49
-22.921 -44.612 -38.922 42 47 53
-23.224 -44.327 -38.892 41 46 52
-23.521 -44.036 -38.865 37 42 48
-23.810 -43.738 -38.838 28 33 39
-24.092 -43.434 -38.812 26 33 39
-24.369 -43.124 -38.793 26 33 39
-24.636 -42.807 -38.770 29 36 42
-24.898 -42.486 -38.753 31 38 46
-25.150 -42.157 -38.732 28 35 43
-25.392 -41.821 -38.707 28 35 43
-25.626 -41.480 -38.681 29 36 44
-25.852 -41.134 -38.660 28 37 42
-26.071 -40.783 -38.640 28 36 38
-26.282 -40.427 -38.622 49 53 52
-26.478 -40.064 -38.590 80 82 79
-26.653 -39.690 -38.526 79 81 80
-26.819 -39.312 -38.460 59 63 66
-26.977 -38.932 -38.402 31 36 42
-27.128 -38.550 -38.348 30 37 47
-27.274 -38.166 -38.307 28 35 43
-27.410 -37.779 -38.265 30 37 45
-27.539 -37.391 -38.231 32 39 47
-27.658 -37.000 -38.196 28 35 43
-27.768 -36.606 -38.161 30 38 41
-27.866 -36.210 -38.123 35 43 46
-27.958 -35.812 -38.092 37 45 48
-28.043 -35.413 -38.070 32 40 43
-28.120 -35.013 -38.050 27 35 38
-28.189 -34.612 -38.036 23 31 34
-28.251 -34.210 -38.031 19 27 30
-28.304 -33.806 -38.026 18 26 29
-28.345 -33.402 -38.018 18 23 27
-28.376 -32.996 -38.007 13 18 22
-28.398 -32.590 -38.002 15 20 24
-28.411 -32.184 -37.997 11 16 20
-28.413 -31.777 -37.990 16 24 26
-28.405 -31.371 -37.981 13 23 24
-28.385 -30.965 -37.969 17 27 28
-28.353 -30.560 -37.953 16 24 26
-28.314 -30.155 -37.942 14 19 22
-28.263 -29.752 -37.928 18 23 26
-28.201 -29.351 -37.908 16 21 24
-28.127 -28.952 -37.887 16 21 24
-28.049 -28.555 -37.875 15 20 23
-27.963 -28.159 -37.871 15 20 23
-27.869 -27.764 -37.871 17 22 25
-27.766 -27.372 -37.870 15 20 23
-27.649 -26.984 -37.860 14 22 25
-27.522 -26.599 -37.849 12 20 23
-27.386 -26.218 -37.838 11 19 22
-27.239 -25.840 -37.823 12 17 20
-27.084 -25.467 -37.810 8 16 18
-26.920 -25.097 -37.799 10 18 20
-26.743 -24.732 -37.777 5 13 16
-26.556 -24.374 -37.749 17 25 28
-26.360 -24.021 -37.722 16 24 27
-26.156 -23.672 -37.696 18 26 28
-25.942 -23.330 -37.668 19 27 29
-25.723 -22.991 -37.646 31 39 42
-25.504 -22.653 -37.647 20 29 28
-25.278 -22.319 -37.655 25 34 33
-25.041 -21.993 -37.652 27 35 38
-24.794 -21.675 -37.643 26 33 39
-24.537 -21.364 -37.627 28 38 40
-24.276 -21.058 -37.620 24 34 36
-24.008 -20.757 -37.616 28 38 40
-23.731 -20.464 -37.609 20 30 32
-23.452 -20.174 -37.614 25 30 33
-23.164 -19.893 -37.614 25 30 33
-22.868 -19.620 -37.611 27 32 35
-22.569 -19.349 -37.623 22 30 32
-22.257 -19.095 -37.607 14 22 25
-21.944 -18.841 -37.614 12 20 23
-21.627 -18.593 -37.628 12 20 23
-21.302 -18.354 -37.636 10 18 21
-20.973 -18.122 -37.648 12 19 25
-20.637 -17.899 -37.656 11 18 26
-20.296 -17.684 -37.666 15 22 30
-19.948 -17.480 -37.669 13 20 28
-19.595 -17.286 -37.670 23 30 36
-19.236 -17.101 -37.665 20 28 31
-18.874 -16.923 -37.668 25 33 36
-18.510 -16.749 -37.684 24 32 35
-18.140 -16.590 -37.686 26 35 40
-17.763 -16.447 -37.669 24 33 40
-17.380 -16.319 -37.636 26 35 42
-16.994 -16.204 -37.595 29 38 45
-16.605 -16.097 -37.558 23 33 35
-16.218 -15.991 -37.543 28 35 43
-15.831 -15.882 -37.560 31 38 48
-15.440 -15.785 -37.569 33 38 42
-15.045 -15.708 -37.553 36 41 45
-14.650 -15.637 -37.548 34 38 41
-14.222 -15.777 -37.050 41 42 46
-13.810 -15.880 -36.670 41 42 44
-13.414 -15.889 -36.542 44 40 39
-13.007 -16.073 -36.017 56 51 48
-12.382 -20.919 -24.245 71 66 63
-12.038 -24.077 -16.595 77 72 69
-11.849 -13.401 -44.501 13 21 24
-11.398 -13.407 -44.501 11 19 22
-10.947 -13.423 -44.501 12 20 23
-10.497 -13.451 -44.501 12 20 23
-10.048 -13.490 -44.501 11 18 24
-9.600 -13.539 -44.501 11 18 24
-9.153 -13.600 -44.501 10 17 23
-8.707 -13.672 -44.501 9 16 22
-8.264 -13.754 -44.501 23 32 37
-7.823 -13.848 -44.501 17 26 31
-7.384 -13.952 -44.501 21 30 35
-6.948 -14.067 -44.501 24 33 38
-6.515 -14.192 -44.501 28 38 40
-6.085 -14.329 -44.501 24 34 36
-5.658 -14.475 -44.501 16 26 28
-5.236 -14.632 -44.501 25 35 37
-4.817 -14.800 -44.501 18 26 28
-4.402 -14.978 -44.501 17 25 28
-3.992 -15.165 -44.501 29 36 42
-3.587 -15.363 -44.501 30 37 45
-3.187 -15.571 -44.501 27 34 40
-2.792 -15.788 -44.501 24 31 37
-2.402 -16.016 -44.501 24 31 37
-2.018 -16.252 -44.501 24 31 37
-1.640 -16.498 -44.501 24 31 37
-1.268 -16.753 -44.501 24 31 37
-0.903 -17.017 -44.501 25 32 38
-0.544 -17.290 -44.501 25 32 38
-0.192 -17.572 -44.501 24 31 37
0.154 -17.863 -44.501 24 31 37
0.491 -18.161 -44.501 25 32 38
0.822 -18.468 -44.501 26 33 39
1.145 -18.783 -44.501 26 34 36
1.460 -19.106 -44.501 27 35 37
1.767 -19.437 -44.501 28 36 39
2.065 -19.774 -44.501 28 35 41
2.356 -20.119 -44.501 28 35 41
2.637 -20.472 -44.501 27 34 40
2.911 -20.831 -44.501 24 31 37
3.175 -21.196 -44.501 23 30 36
3.430 -21.568 -44.501 24 31 37
3.676 -21.946 -44.501 22 29 35
3.912 -22.330 -44.501 21 28 34
4.139 -22.720 -44.501 21 28 34
4.357 -23.115 -44.501 19 26 32
4.565 -23.515 -44.501 21 28 34
4.762 -23.920 -44.501 19 26 32
4.950 -24.330 -44.501 19 26 32
5.128 -24.745 -44.501 20 27 35
5.295 -25.164 -44.501 19 26 34
5.453 -25.586 -44.501 20 27 35
5.599 -26.013 -44.501 20 27 35
5.735 -26.443 -44.501 18 25 31
5.861 -26.876 -44.501 17 24 30
5.976 -27.312 -44.501 17 24 30
6.080 -27.751 -44.501 17 24 30
6.174 -28.192 -44.501 15 22 28
6.256 -28.635 -44.501 17 24 30
6.328 -29.081 -44.501 17 24 30
6.389 -29.528 -44.501 17 24 30
6.438 -29.976 -44.501 18 25 31
6.477 -30.425 -44.501 18 25 31
6.505 -30.875 -44.501 17 24 30
6.521 -31.326 -44.501 18 25 31
6.510 -31.777 -44.458 19 26 34
6.474 -32.227 -44.382 19 26 34
6.427 -32.675 -44.304 21 28 36
6.368 -33.121 -44.224 18 25 33
6.299 -33.564 -44.147 18 25 31
6.222 -34.006 -44.077 19 26 32
6.137 -34.445 -44.012 23 30 36
6.041 -34.881 -43.947 23 30 36
5.934 -35.314 -43.882 26 33 41
5.815 -35.744 -43.812 25 32 40
5.686 -36.169 -43.745 23 30 38
5.549 -36.592 -43.681 27 34 42
5.401 -37.010 -43.617 26 33 41
5.242 -37.423 -43.548 26 33 41
5.071 -37.831 -43.477 27 34 42
4.892 -38.235 -43.405 28 35 43
4.702 -38.633 -43.335 27 34 42
4.502 -39.025 -43.261 31 38 46
4.293 -39.411 -43.186 33 40 48
4.074 -39.792 -43.112 31 38 46
3.847 -40.167 -43.039 33 40 48
3.613 -40.536 -42.969 33 40 48
3.371 -40.899 -42.903 35 42 50
3.120 -41.256 -42.836 33 40 48
2.861 -41.606 -42.768 32 39 47
2.594 -41.949 -42.704 33 40 48
2.321 -42.286 -42.644 34 41 49
2.041 -42.617 -42.586 34 41 49
1.753 -42.940 -42.529 35 42 50
1.458 -43.255 -42.470 35 42 50
1.154 -43.563 -42.410 34 41 49
0.845 -43.863 -42.354 35 42 50
0.530 -44.156 -42.302 30 37 45
0.208 -44.441 -42.248 29 36 44
-0.121 -44.717 -42.193 24 31 39
-0.458 -44.982 -42.132 23 30 38
-0.801 -45.240 -42.072 23 30 38
-1.148 -45.489 -42.015 23 30 38
-1.501 -45.729 -41.958 21 28 36
-1.860 -45.960 -41.898 23 30 38
-2.226 -46.178 -41.830 23 30 38
-2.597 -46.388 -41.764 23 30 38
-2.970 -46.590 -41.703 23 30 38
-3.348 -46.784 -41.646 21 28 36
-3.730 -46.967 -41.587 22 29 37
-4.117 -47.139 -41.521 22 29 37
-4.507 -47.301 -41.456 21 28 36
-4.900 -47.454 -41.396 22 29 37
-5.295 -47.600 -41.339 23 30 38
-5.694 -47.734 -41.281 25 32 40
-6.095 -47.858 -41.221 23 30 38
-6.499 -47.971 -41.158 23 30 38
-6.905 -48.075 -41.098 26 30 39
-7.313 -48.170 -41.042 25 29 38
-7.721 -48.255 -40.987 26 30 39
-8.132 -48.330 -40.930 26 30 39
-8.544 -48.393 -40.871 24 31 39
-8.957 -48.447 -40.814 24 31 39
-9.370 -48.492 -40.760 25 32 40
-9.783 -48.527 -40.708 25 32 40
-10.197 -48.552 -40.655 23 30 36
-10.611 -48.566 -40.601 24 31 37
-11.024 -48.571 -40.550 24 31 37
-11.437 -48.568 -40.504 24 31 37
-11.849 -48.559 -40.468 26 31 37
-12.261 -48.541 -40.435 26 31 37
-12.671 -48.512 -40.399 24 29 35
-13.080 -48.470 -40.358 21 26 32
-13.488 -48.419 -40.317 18 23 29
-13.894 -48.360 -40.283 18 23 29
-14.299 -48.292 -40.250 14 19 25
-14.701 -48.212 -40.212 15 20 26
-15.100 -48.121 -40.171 13 18 24
-15.497 -48.022 -40.133 14 19 25
-15.891 -47.914 -40.096 19 24 30
-16.282 -47.795 -40.058 20 25 31
-16.668 -47.665 -40.013 21 26 30
-17.051 -47.524 -39.967 28 33 37
-17.431 -47.376 -39.926 33 38 42
-17.807 -47.222 -39.891 36 41 45
-18.179 -47.058 -39.856 41 46 49
-18.546 -46.884 -39.818 45 50 53
-18.907 -46.700 -39.773 49 54 57
-19.263 -46.506 -39.729 51 56 59
-19.615 -46.305 -39.687 52 57 63
-19.960 -46.096 -39.644 54 59 65
-20.301 -45.879 -39.605 55 60 66
-20.636 -45.654 -39.565 58 63 69
-20.966 -45.421 -39.526 58 63 67
-21.289 -45.181 -39.489 50 55 59
-21.609 -44.936 -39.459 40 45 49
-21.921 -44.684 -39.429 33 38 42
-22.226 -44.422 -39.395 26 31 35
-22.523 -44.151 -39.352 30 35 39
-22.812 -43.872 -39.309 32 37 41
-23.096 -43.590 -39.274 35 40 44
-23.374 -43.302 -39.246 32 37 41
-23.647 -43.009 -39.221 32 37 41
-23.913 -42.711 -39.201 33 38 42
-24.171 -42.406 -39.178 32 37 41
-24.422 -42.096 -39.161 37 41 50
-24.666 -41.779 -39.141 34 38 47
-24.900 -41.456 -39.119 35 39 48
-25.127 -41.128 -39.097 33 37 46
-25.346 -40.795 -39.077 32 41 48
-25.556 -40.457 -39.057 37 44 50
-25.758 -40.113 -39.034 54 58 61
-25.948 -39.764 -39.006 78 80 79
-26.121 -39.406 -38.952 40 42 41
-26.285 -39.044 -38.899 35 39 40
-26.441 -38.678 -38.847 31 36 40
-26.587 -38.310 -38.795 31 36 42
-26.728 -37.940 -38.754 26 30 39
-26.863 -37.568 -38.722 32 37 43
-26.989 -37.194 -38.691 40 45 51
-27.106 -36.817 -38.660 25 30 36
-27.212 -36.437 -38.626 38 43 47
-27.310 -36.056 -38.596 32 37 40
-27.401 -35.673 -38.572 45 50 53
-27.485 -35.288 -38.552 48 53 56
-27.557 -34.902 -38.529 48 53 56
-27.620 -34.514 -38.507 49 54 57
-27.677 -34.125 -38.491 41 46 49
-27.723 -33.735 -38.474 39 44 47
-27.758 -33.344 -38.453 34 38 39
-27.780 -32.952 -38.423 48 52 53
-27.796 -32.560 -38.404 71 75 76
-27.806 -32.169 -38.391 72 76 77
-27.807 -31.777 -38.382 51 59 61
-27.799 -31.385 -38.373 41 49 51
-27.780 -30.994 -38.363 41 49 51
-27.750 -30.604 -38.347 38 46 48
-27.710 -30.215 -38.330 38 48 49
-27.657 -29.827 -38.307 38 48 49
-27.593 -29.442 -38.278 38 48 49
-27.522 -29.057 -38.254 37 47 48
-27.445 -28.675 -38.238 37 47 48
-27.360 -28.294 -38.229 36 46 47
-27.270 -27.914 -38.228 37 47 48
-27.170 -27.537 -38.228 37 47 48
-27.060 -27.163 -38.225 41 51 50
-26.939 -26.792 -38.215 38 47 46
-26.808 -26.424 -38.205 31 37 37
-26.668 -26.061 -38.194 29 33 34
-26.520 -25.700 -38.183 25 31 31
-26.361 -25.344 -38.169 28 34 34
-26.192 -24.993 -38.151 30 36 36
-26.013 -24.648 -38.127 21 27 27
-25.826 -24.306 -38.105 23 29 29
-25.632 -23.969 -38.085 19 25 25
-25.433 -23.635 -38.076 23 29 29
-25.225 -23.307 -38.065 30 36 36
-25.010 -22.983 -38.054 31 40 37
-24.788 -22.664 -38.048 45 54 51
-24.559 -22.351 -38.042 70 78 80
-24.325 -22.041 -38.047 52 59 65
-24.081 -21.738 -38.043 54 62 65
-23.824 -21.447 -38.021 56 64 66
-23.561 -21.162 -38.000 61 69 71
-23.292 -20.883 -37.981 12 20 22
-23.021 -20.605 -37.981 17 22 25
-22.741 -20.336 -37.974 18 22 23
-22.455 -20.075 -37.966 18 22 23
-22.164 -19.819 -37.962 22 26 27
-21.867 -19.570 -37.961 25 30 33
-21.565 -19.327 -37.964 24 29 32
-21.258 -19.090 -37.970 24 29 32
-20.945 -18.862 -37.974 20 25 28
-20.629 -18.637 -37.990 19 27 29
-20.309 -18.418 -38.014 19 27 29
-19.985 -18.204 -38.046 22 30 32
-19.653 -18.000 -38.067 14 22 24
-19.317 -17.806 -38.088 14 19 22
-18.975 -17.619 -38.110 13 18 21
-18.631 -17.438 -38.139 20 25 28
-18.284 -17.260 -38.183 15 20 23
-17.930 -17.097 -38.209 11 19 22
-17.569 -16.947 -38.222 8 16 19
-17.204 -16.812 -38.220 14 22 25
-16.831 -16.695 -38.194 19 27 30
-16.455 -16.592 -38.156 25 30 33
-16.079 -16.492 -38.133 28 33 37
-15.702 -16.395 -38.127 31 35 44
-15.322 -16.309 -38.116 32 37 41
-14.941 -16.232 -38.109 27 32 38
-14.559 -16.160 -38.109 29 34 40
-14.175 -16.095 -38.118 28 36 39
-13.791 -16.034 -38.140 29 37 39
-13.405 -15.975 -38.181 30 36 36
-13.017 -15.948 -38.165 36 42 42
-12.628 -15.920 -38.176 36 42 42
-12.239 -15.887 -38.221 36 42 42
-11.849 -14.164 -44.795 23 31 34
-11.417 -14.170 -44.795 23 31 34
-10.985 -14.186 -44.795 25 33 36
-10.553 -14.212 -44.795 24 32 35
-10.123 -14.249 -44.795 26 33 39
-9.693 -14.297 -44.795 24 31 37
-9.265 -14.355 -44.795 28 35 41
-8.838 -14.424 -44.795 28 35 41
-8.413 -14.503 -44.795 26 33 39
-7.990 -14.592 -44.795 28 35 41
-7.570 -14.692 -44.795 23 30 36
-7.152 -14.802 -44.795 23 30 36
-6.736 -14.923 -44.795 24 32 35
-6.324 -15.053 -44.795 22 30 33
-5.916 -15.194 -44.795 19 27 30
-5.510 -15.345 -44.795 28 36 39
-5.109 -15.505 -44.795 22 30 32
-4.712 -15.675 -44.795 22 30 33
-4.319 -15.855 -44.795 25 32 38
-3.930 -16.045 -44.795 24 31 39
-3.547 -16.244 -44.795 24 31 39
-3.168 -16.453 -44.795 19 26 34
-2.794 -16.670 -44.795 21 28 36
-2.426 -16.897 -44.795 24 31 39
-2.064 -17.133 -44.795 24 31 37
-1.708 -17.377 -44.795 24 31 37
-1.357 -17.630 -44.795 22 29 35
-1.013 -17.892 -44.795 24 31 37
-0.676 -18.162 -44.795 25 32 38
-0.345 -18.441 -44.795 22 29 35
-0.021 -18.727 -44.795 24 31 37
0.295 -19.021 -44.795 22 29 35
0.605 -19.323 -44.795 23 31 34
0.907 -19.632 -44.795 23 31 34
1.201 -19.949 -44.795 23 30 36
1.487 -20.273 -44.795 22 29 37
1.766 -20.604 -44.795 23 30 38
2.036 -20.941 -44.795 21 28 36
2.297 -21.285 -44.795 22 29 37
2.551 -21.636 -44.795 21 28 36
2.795 -21.992 -44.795 21 28 34
3.031 -22.354 -44.795 21 28 34
3.258 -22.722 -44.795 21 28 34
3.475 -23.096 -44.795 20 27 33
3.684 -23.475 -44.795 20 27 33
3.883 -23.858 -44.795 18 25 31
4.072 -24.247 -44.795 20 27 33
4.252 -24.640 -44.795 18 25 31
4.423 -25.037 -44.795 18 25 33
4.583 -25.438 -44.795 19 26 34
4.734 -25.844 -44.795 20 27 35
4.875 -26.252 -44.795 20 27 35
5.005 -26.664 -44.795 17 24 30
5.125 -27.080 -44.795 17 24 30
5.236 -27.497 -44.795 17 24 30
5.335 -27.918 -44.795 17 24 30
5.425 -28.341 -44.795 18 25 31
5.504 -28.766 -44.795 18 25 31
5.573 -29.193 -44.795 17 24 30
5.631 -29.621 -44.795 17 24 30
5.679 -30.051 -44.795 16 23 29
5.716 -30.481 -44.795 17 24 30
5.742 -30.913 -44.795 18 25 31
5.758 -31.345 -44.795 18 25 31
5.763 -31.777 -44.795 19 26 34
5.752 -32.209 -44.778 19 26 34
5.707 -32.639 -44.700 19 26 34
5.650 -33.068 -44.620 19 26 34
5.583 -33.494 -44.539 17 24 32
5.509 -33.918 -44.468 17 24 32
5.426 -34.340 -44.402 18 25 33
5.334 -34.759 -44.336 18 25 33
5.230 -35.174 -44.268 20 27 35
5.116 -35.587 -44.197 19 26 34
4.992 -35.996 -44.129 18 25 33
4.860 -36.401 -44.064 19 26 34
4.719 -36.803 -44.001 19 26 34
4.566 -37.200 -43.932 18 25 33
4.403 -37.592 -43.861 21 28 36
4.229 -37.979 -43.786 22 29 37
4.046 -38.361 -43.711 21 28 36
3.853 -38.737 -43.635 27 34 42
3.652 -39.109 -43.561 29 36 44
3.443 -39.474 -43.487 29 36 44
3.226 -39.835 -43.415 28 35 43
3.001 -40.189 -43.347 27 34 42
2.769 -40.539 -43.281 25 32 40
2.529 -40.882 -43.217 26 33 41
2.281 -41.219 -43.153 27 34 42
2.026 -41.549 -43.091 21 28 36
1.765 -41.874 -43.034 23 30 38
1.497 -42.192 -42.979 23 30 38
1.221 -42.503 -42.923 22 29 37
0.937 -42.806 -42.864 20 27 35
0.644 -43.100 -42.800 22 29 37
0.346 -43.388 -42.738 22 29 37
0.042 -43.668 -42.681 23 30 38
-0.268 -43.941 -42.624 23 30 38
-0.585 -44.205 -42.565 24 31 39
-0.910 -44.459 -42.499 21 28 36
-1.240 -44.704 -42.433 23 30 38
-1.575 -44.942 -42.371 23 30 38
-1.915 -45.172 -42.309 25 32 40
-2.260 -45.392 -42.244 24 31 39
-2.612 -45.601 -42.175 22 29 37
-2.968 -45.802 -42.108 23 30 38
-3.327 -45.996 -42.045 25 32 40
-3.689 -46.182 -41.988 24 31 39
-4.055 -46.359 -41.930 21 28 36
-4.426 -46.524 -41.866 23 30 38
-4.800 -46.680 -41.802 23 30 38
-5.178 -46.827 -41.741 23 30 38
-5.557 -46.967 -41.684 23 30 38
-5.939 -47.097 -41.628 23 30 38
-6.325 -47.216 -41.568 24 31 39
-6.713 -47.325 -41.507 23 30 38
-7.102 -47.424 -41.445 24 28 37
-7.494 -47.516 -41.388 24 28 37
-7.886 -47.598 -41.333 24 28 37
-8.280 -47.669 -41.276 25 29 38
-8.676 -47.729 -41.215 26 31 37
-9.072 -47.780 -41.155 25 30 36
-9.469 -47.823 -41.099 24 29 35
-9.866 -47.857 -41.047 24 29 35
-10.263 -47.882 -40.997 24 29 35
-10.660 -47.898 -40.948 19 24 30
-11.057 -47.904 -40.901 10 15 21
-11.453 -47.903 -40.858 6 11 17
-11.849 -47.893 -40.819 8 13 17
-12.244 -47.873 -40.778 11 16 20
-12.638 -47.841 -40.733 13 18 22
-13.031 -47.799 -40.685 16 21 25
-13.422 -47.748 -40.640 17 22 26
-13.812 -47.690 -40.600 19 24 28
-14.200 -47.623 -40.562 21 26 30
-14.585 -47.546 -40.524 27 32 36
-14.969 -47.460 -40.485 26 31 37
-15.349 -47.365 -40.447 26 31 37
-15.727 -47.260 -40.409 31 36 42
-16.103 -47.147 -40.372 47 52 58
-16.474 -47.023 -40.331 48 53 57
-16.842 -46.890 -40.289 49 54 58
-17.206 -46.749 -40.248 45 50 54
-17.567 -46.600 -40.212 48 53 57
-17.924 -46.443 -40.177 50 55 58
-18.276 -46.277 -40.141 51 57 57
-18.624 -46.101 -40.100 52 58 58
-18.967 -45.918 -40.063 54 60 60
-19.306 -45.728 -40.028 54 57 62
-19.640 -45.530 -39.997 56 59 66
-19.970 -45.326 -39.969 46 49 56
-20.294 -45.114 -39.942 30 33 40
-20.613 -44.893 -39.911 36 41 47
-20.924 -44.663 -39.875 36 41 47
-21.230 -44.426 -39.841 33 38 44
-21.529 -44.181 -39.804 30 35 41
-21.821 -43.928 -39.765 29 34 38
-22.107 -43.668 -39.725 27 32 35
-22.387 -43.404 -39.691 26 31 34
-22.663 -43.135 -39.667 22 27 30
-22.933 -42.861 -39.648 18 22 25
-23.197 -42.581 -39.630 18 22 23
-23.454 -42.295 -39.614 20 24 25
-23.703 -42.003 -39.595 15 19 20
-23.946 -41.705 -39.578 16 20 23
-24.180 -41.400 -39.559 25 29 32
-24.406 -41.090 -39.537 20 24 27
-24.624 -40.774 -39.515 22 26 29
-24.834 -40.453 -39.493 27 32 36
-25.036 -40.127 -39.471 19 24 28
-25.229 -39.797 -39.447 40 44 47
-25.411 -39.460 -39.413 49 53 56
-25.579 -39.116 -39.364 39 43 42
-25.738 -38.768 -39.312 37 41 40
-25.889 -38.417 -39.264 63 64 66
-26.030 -38.063 -39.214 48 49 51
-26.164 -37.706 -39.168 17 21 24
-26.294 -37.349 -39.136 13 17 20
-26.416 -36.989 -39.107 52 56 59
-26.529 -36.627 -39.076 64 68 71
-26.631 -36.261 -39.042 48 52 53
-26.724 -35.894 -39.008 44 48 49
-26.809 -35.524 -38.977 44 48 49
-26.886 -35.154 -38.947 47 51 52
-26.953 -34.781 -38.917 42 46 47
-27.013 -34.408 -38.892 44 48 49
-27.067 -34.034 -38.875 41 45 46
-27.110 -33.659 -38.854 43 47 48
-27.145 -33.283 -38.836 39 41 40
-27.170 -32.907 -38.816 57 59 58
-27.189 -32.531 -38.805 63 65 64
-27.198 -32.154 -38.793 64 66 65
-27.199 -31.777 -38.785 51 57 57
-27.191 -31.400 -38.775 44 50 50
-27.171 -31.024 -38.758 41 47 47
-27.140 -30.649 -38.738 39 45 45
-27.100 -30.275 -38.717 29 39 38
-27.049 -29.902 -38.692 30 40 39
