ply
format ascii 1.0
element vertex 1642
property float x
property float y
property float z
property uchar red
property uchar green
property uchar blue
end_header
-5.427 2.153 -45.462 48 55 63
-5.488 2.315 -45.438 48 55 63
-5.545 2.478 -45.412 48 55 63
-5.597 2.642 -45.387 49 56 64
-5.646 2.808 -45.366 50 55 61
-5.691 2.974 -45.343 49 54 60
-5.732 3.142 -45.319 50 55 61
-5.767 3.310 -45.290 50 55 61
-5.798 3.480 -45.257 48 55 63
-5.825 3.650 -45.223 49 56 64
-5.847 3.820 -45.187 51 58 66
-5.864 3.991 -45.148 52 59 67
-5.877 4.162 -45.108 56 60 71
-5.886 4.334 -45.067 57 61 72
-5.890 4.505 -45.025 59 63 74
-5.890 4.676 -44.980 59 63 74
-5.885 4.847 -44.933 58 65 73
-5.876 5.018 -44.888 55 62 70
-5.863 5.188 -44.846 54 61 69
-5.847 5.358 -44.807 55 62 70
-5.828 5.527 -44.773 54 61 67
-5.804 5.696 -44.740 56 63 69
-5.776 5.864 -44.708 53 60 66
-5.745 6.031 -44.676 53 60 66
-5.709 6.197 -44.643 52 59 69
-5.669 6.362 -44.613 51 58 68
-5.626 6.526 -44.584 51 58 68
-5.578 6.689 -44.551 50 57 67
-5.526 6.850 -44.520 48 55 63
-5.471 7.010 -44.488 49 56 64
-5.412 7.169 -44.459 49 56 64
-5.349 7.326 -44.432 49 56 64
-5.282 7.481 -44.402 47 54 64
-5.211 7.635 -44.372 49 56 66
-5.137 7.786 -44.341 47 54 64
-5.059 7.936 -44.311 49 56 66
-4.977 8.084 -44.281 48 55 65
-4.892 8.229 -44.247 48 55 65
-4.802 8.371 -44.212 49 56 66
-4.710 8.512 -44.179 47 54 64
-4.614 8.650 -44.146 48 55 65
-4.515 8.786 -44.114 48 55 65
-4.413 8.919 -44.081 46 53 63
-4.307 9.050 -44.046 46 53 63
-4.199 9.177 -44.013 47 54 62
-4.087 9.302 -43.979 47 54 62
-3.973 9.424 -43.947 47 54 62
-3.855 9.544 -43.914 46 53 61
-3.735 9.660 -43.881 47 54 62
-3.612 9.773 -43.848 45 52 60
-3.487 9.883 -43.816 46 53 61
-3.359 9.990 -43.789 43 50 58
-3.229 10.095 -43.763 44 48 59
-3.097 10.196 -43.736 44 48 59
-2.962 10.294 -43.712 44 48 59
-2.826 10.389 -43.692 44 48 59
-2.687 10.480 -43.673 42 49 59
-2.546 10.569 -43.656 41 50 59
-2.403 10.654 -43.638 39 48 57
-2.258 10.735 -43.619 42 51 60
-2.111 10.813 -43.600 39 49 58
-1.963 10.886 -43.578 39 48 57
-1.812 10.957 -43.559 39 48 57
-1.660 11.023 -43.538 40 47 57
-1.506 11.085 -43.513 36 45 54
-1.351 11.143 -43.489 35 45 54
-1.195 11.197 -43.466 36 46 55
-1.037 11.248 -43.444 36 46 55
-0.879 11.295 -43.424 35 44 51
-0.719 11.338 -43.403 35 44 51
-0.559 11.378 -43.385 35 44 51
-0.397 11.414 -43.368 38 47 54
-0.235 11.444 -43.345 37 46 53
-0.072 11.471 -43.318 33 42 49
0.091 11.493 -43.292 33 42 49
0.255 11.512 -43.272 34 43 50
0.419 11.528 -43.254 30 41 47
0.584 11.538 -43.225 30 41 47
0.748 11.545 -43.205 29 40 46
0.913 11.551 -43.205 27 38 44
1.077 11.374 -47.572 2 3 5
1.237 11.372 -47.572 1 2 6
1.397 11.366 -47.572 3 4 8
1.557 11.356 -47.572 3 4 9
1.717 11.342 -47.572 3 4 9
1.876 11.325 -47.572 3 4 9
2.035 11.303 -47.572 3 4 9
2.193 11.278 -47.572 3 4 9
2.350 11.248 -47.572 3 4 9
2.507 11.215 -47.572 3 4 9
2.663 11.178 -47.572 3 4 9
2.818 11.137 -47.572 3 4 9
2.972 11.093 -47.572 3 3 11
3.124 11.044 -47.572 3 3 11
3.276 10.992 -47.572 2 2 10
3.426 10.936 -47.572 3 3 11
3.575 10.877 -47.572 3 4 9
3.722 10.814 -47.572 3 4 8
3.868 10.747 -47.572 3 4 8
4.011 10.677 -47.572 3 4 8
4.154 10.603 -47.572 3 4 9
4.294 10.526 -47.572 3 3 11
4.432 10.445 -47.572 2 2 10
4.569 10.361 -47.572 3 3 11
4.703 10.274 -47.572 0 3 8
4.835 10.183 -47.572 0 3 8
4.965 10.089 -47.572 1 4 9
5.092 9.992 -47.572 1 4 9
5.217 9.892 -47.572 3 4 8
5.340 9.789 -47.572 3 4 8
5.460 9.683 -47.572 3 4 8
5.577 9.574 -47.572 3 4 8
5.692 9.462 -47.572 4 3 8
5.804 9.347 -47.572 4 3 8
5.913 9.230 -47.572 3 2 7
6.019 9.110 -47.572 4 3 8
6.122 8.988 -47.572 2 3 8
6.222 8.863 -47.572 2 3 8
6.319 8.735 -47.572 2 3 8
6.413 8.605 -47.572 2 3 8
6.504 8.473 -47.572 3 4 9
6.591 8.339 -47.572 2 3 8
6.675 8.203 -47.572 4 5 10
6.756 8.064 -47.572 3 4 9
6.833 7.924 -47.572 5 4 9
6.907 7.782 -47.572 5 4 9
6.977 7.638 -47.572 4 3 8
7.044 7.492 -47.572 4 3 8
7.107 7.345 -47.572 3 4 9
7.166 7.196 -47.572 1 4 9
7.222 7.046 -47.572 3 6 11
7.274 6.895 -47.572 2 5 10
7.322 6.742 -47.572 1 4 9
7.367 6.588 -47.572 3 6 11
7.408 6.433 -47.572 1 4 9
7.445 6.277 -47.572 1 4 9
7.478 6.121 -47.572 4 7 14
7.507 5.963 -47.572 4 7 14
7.533 5.805 -47.572 5 8 15
7.554 5.646 -47.572 5 8 15
7.572 5.487 -47.572 4 11 17
7.586 5.327 -47.572 8 15 23
7.596 5.168 -47.572 10 17 25
7.602 5.007 -47.572 17 24 32
7.603 4.847 -47.572 20 27 35
7.602 4.687 -47.572 25 32 42
7.596 4.527 -47.572 29 36 46
7.586 4.367 -47.572 31 38 48
7.572 4.208 -47.572 38 42 51
7.554 4.048 -47.572 39 43 52
7.533 3.890 -47.572 41 45 54
7.507 3.732 -47.572 44 48 57
7.478 3.574 -47.572 45 52 60
7.445 3.417 -47.572 45 52 60
7.408 3.262 -47.572 46 53 61
7.367 3.107 -47.572 48 55 63
7.322 2.953 -47.572 52 59 69
7.274 2.800 -47.572 52 56 67
7.222 2.649 -47.572 58 62 73
7.166 2.499 -47.572 58 62 73
7.107 2.350 -47.572 55 62 70
7.044 2.203 -47.572 57 64 72
6.977 2.057 -47.572 58 65 73
6.907 1.913 -47.572 59 66 74
6.833 1.771 -47.572 61 66 72
6.756 1.631 -47.572 60 63 70
6.675 1.492 -47.572 60 63 70
6.591 1.356 -47.572 63 66 73
6.504 1.222 -47.572 65 70 76
6.413 1.089 -47.572 62 67 73
6.319 0.960 -47.572 60 64 73
6.222 0.832 -47.572 62 66 75
6.122 0.707 -47.572 67 70 79
6.019 0.585 -47.572 67 70 79
5.913 0.465 -47.572 66 69 78
5.804 0.347 -47.572 66 69 78
5.692 0.233 -47.572 66 70 79
5.577 0.121 -47.572 65 68 77
5.460 0.012 -47.572 67 70 79
5.340 -0.094 -47.572 67 70 79
5.217 -0.198 -47.572 68 71 78
5.092 -0.298 -47.572 68 68 76
4.965 -0.395 -47.572 68 68 76
4.835 -0.488 -47.572 68 68 76
4.702 -0.577 -47.557 66 70 79
4.566 -0.662 -47.533 66 70 79
4.428 -0.743 -47.510 65 69 78
4.288 -0.821 -47.486 65 69 78
4.147 -0.896 -47.462 64 68 77
4.003 -0.966 -47.436 64 68 77
3.858 -1.033 -47.407 65 69 78
3.712 -1.096 -47.381 64 68 77
3.564 -1.156 -47.356 64 67 76
3.415 -1.212 -47.333 64 67 76
3.264 -1.265 -47.310 61 64 73
3.113 -1.314 -47.287 63 66 75
2.960 -1.360 -47.267 62 66 75
2.807 -1.402 -47.253 59 63 72
2.652 -1.441 -47.239 57 61 70
2.497 -1.475 -47.223 57 61 70
2.341 -1.506 -47.205 58 61 70
2.184 -1.533 -47.186 58 58 68
2.027 -1.556 -47.170 53 53 63
1.869 -1.576 -47.159 54 54 64
1.711 -1.592 -47.145 51 51 61
1.553 -1.604 -47.133 50 50 60
1.394 -1.611 -47.118 50 50 60
1.236 -1.615 -47.104 47 47 57
1.077 -1.616 -47.093 42 42 52
0.919 -1.612 -47.079 42 42 52
0.760 -1.604 -47.063 41 41 51
0.602 -1.592 -47.046 38 38 48
0.445 -1.576 -47.027 36 36 46
0.287 -1.557 -47.013 34 34 44
0.131 -1.533 -46.997 30 30 40
-0.025 -1.506 -46.979 30 30 40
-0.180 -1.474 -46.958 27 27 37
-0.334 -1.439 -46.935 28 28 38
-0.488 -1.400 -46.917 25 28 37
-0.640 -1.357 -46.899 24 27 36
-0.791 -1.311 -46.879 24 27 36
-0.941 -1.260 -46.859 24 24 34
-1.089 -1.207 -46.839 22 22 32
-1.236 -1.149 -46.822 22 22 32
-1.382 -1.089 -46.807 20 24 33
-1.526 -1.025 -46.791 17 24 32
-1.668 -0.957 -46.774 16 23 31
-1.809 -0.886 -46.759 16 23 31
-1.948 -0.812 -46.745 19 22 31
-2.085 -0.735 -46.733 18 21 30
-2.220 -0.654 -46.719 16 19 28
-2.353 -0.570 -46.704 16 19 28
-2.484 -0.482 -46.688 17 21 30
-2.612 -0.392 -46.672 15 19 28
-2.739 -0.298 -46.655 15 19 28
-2.862 -0.200 -46.635 15 19 28
-2.983 -0.100 -46.610 13 17 26
-3.100 0.004 -46.582 12 16 25
-3.216 0.111 -46.553 14 18 27
-3.328 0.221 -46.522 12 16 25
-3.437 0.333 -46.489 14 18 27
-3.543 0.449 -46.452 14 18 27
-3.645 0.567 -46.413 15 19 28
-3.745 0.687 -46.375 13 17 26
-3.842 0.810 -46.339 14 19 25
-3.936 0.935 -46.305 13 18 24
-4.027 1.062 -46.271 14 19 25
-4.115 1.191 -46.238 13 18 24
-4.200 1.321 -46.206 13 17 26
-4.281 1.454 -46.173 13 17 26
-4.360 1.589 -46.146 11 15 24
-4.435 1.725 -46.118 11 15 24
-4.507 1.863 -46.092 14 18 27
-4.575 2.002 -46.067 14 18 27
-4.641 2.143 -46.044 12 16 25
-4.703 2.285 -46.022 12 16 25
-4.761 2.429 -46.001 10 14 23
-4.816 2.574 -45.978 14 17 26
-4.867 2.720 -45.957 15 18 27
-4.915 2.868 -45.937 15 18 27
-4.960 3.016 -45.919 12 16 25
-5.001 3.165 -45.901 13 17 26
-5.038 3.316 -45.881 12 16 25
-5.070 3.467 -45.858 13 17 26
-5.099 3.619 -45.832 11 18 26
-5.124 3.771 -45.805 12 19 27
-5.145 3.924 -45.778 13 20 28
-5.161 4.078 -45.746 14 21 29
-5.174 4.232 -45.712 18 22 31
-5.182 4.386 -45.676 22 26 35
-5.187 4.540 -45.635 24 28 37
-5.187 4.694 -45.593 31 35 44
-5.182 4.847 -45.543 39 46 54
-5.174 5.001 -45.493 43 50 58
-5.163 5.154 -45.452 51 58 66
-5.148 5.307 -45.415 55 62 70
-5.131 5.459 -45.383 57 64 72
-5.110 5.610 -45.354 57 64 72
-5.086 5.762 -45.326 57 64 72
-5.058 5.912 -45.299 56 63 71
-5.027 6.061 -45.271 53 60 68
-4.992 6.210 -45.248 54 61 69
-4.954 6.358 -45.227 53 60 68
-4.912 6.505 -45.201 53 60 68
-4.866 6.650 -45.176 56 60 69
-4.817 6.794 -45.150 54 58 67
-4.764 6.937 -45.126 53 57 66
-4.709 7.079 -45.104 52 56 65
-4.649 7.219 -45.080 52 56 65
-4.586 7.358 -45.052 52 56 65
-4.519 7.494 -45.024 52 56 65
-4.450 7.629 -44.998 53 57 66
-4.377 7.762 -44.973 52 59 67
-4.300 7.894 -44.944 52 59 67
-4.220 8.023 -44.913 51 58 66
-4.138 8.150 -44.883 51 58 66
-4.052 8.274 -44.852 53 57 68
-3.963 8.397 -44.822 51 55 66
-3.871 8.517 -44.790 51 55 66
-3.775 8.634 -44.755 53 57 68
-3.678 8.749 -44.721 51 58 66
-3.577 8.862 -44.686 51 58 66
-3.474 8.972 -44.653 53 60 68
-3.368 9.079 -44.619 49 56 64
-3.260 9.184 -44.585 49 56 64
-3.149 9.286 -44.553 50 57 65
-3.036 9.385 -44.521 47 54 62
-2.921 9.482 -44.495 48 55 63
-2.804 9.577 -44.471 49 56 64
-2.685 9.668 -44.445 49 56 64
-2.563 9.756 -44.420 48 55 63
-2.440 9.841 -44.397 50 57 65
-2.315 9.924 -44.377 48 55 63
-2.188 10.004 -44.361 49 56 64
-2.059 10.081 -44.343 48 55 63
-1.929 10.154 -44.324 49 56 64
-1.797 10.224 -44.305 48 55 63
-1.662 10.290 -44.283 49 53 62
-1.527 10.353 -44.265 50 54 63
-1.390 10.413 -44.244 49 53 62
-1.251 10.469 -44.219 46 53 61
-1.111 10.521 -44.192 45 52 60
-0.970 10.570 -44.166 45 52 60
-0.828 10.616 -44.146 45 52 60
-0.686 10.658 -44.125 47 54 62
-0.542 10.697 -44.103 47 54 62
-0.397 10.733 -44.084 45 52 60
-0.252 10.765 -44.066 46 53 61
-0.105 10.793 -44.044 43 50 58
0.041 10.817 -44.020 44 51 59
0.189 10.837 -43.994 43 50 58
0.336 10.854 -43.969 45 52 60
0.484 10.867 -43.944 41 48 56
0.633 10.876 -43.913 43 50 58
0.781 10.881 -43.885 44 51 59
0.929 10.884 -43.867 40 47 55
1.077 10.562 -47.672 3 4 6
1.217 10.560 -47.672 3 4 8
1.358 10.555 -47.672 3 4 9
1.498 10.546 -47.672 3 3 11
1.637 10.534 -47.672 3 4 9
1.777 10.519 -47.672 3 4 9
1.916 10.500 -47.672 3 4 9
2.054 10.478 -47.672 3 4 9
2.192 10.452 -47.672 3 4 9
2.329 10.423 -47.672 3 4 9
2.466 10.390 -47.672 3 4 9
2.601 10.355 -47.672 3 4 9
2.736 10.316 -47.672 3 3 11
2.870 10.273 -47.672 3 3 11
3.002 10.228 -47.672 2 2 10
3.134 10.179 -47.672 3 3 11
3.264 10.127 -47.672 3 4 9
3.393 10.071 -47.672 3 4 9
3.520 10.013 -47.672 3 4 9
3.646 9.952 -47.672 3 4 9
3.771 9.887 -47.672 3 3 11
3.894 9.819 -47.672 3 3 11
4.015 9.749 -47.672 2 2 10
4.134 9.675 -47.672 3 3 11
4.252 9.599 -47.672 4 3 9
4.368 9.519 -47.672 4 3 9
4.481 9.437 -47.672 4 3 9
4.593 9.352 -47.672 4 3 9
4.702 9.265 -47.672 1 4 9
4.810 9.174 -47.672 1 4 9
4.915 9.081 -47.672 1 4 9
5.017 8.986 -47.672 1 4 9
5.118 8.888 -47.672 3 4 9
5.216 8.788 -47.672 3 4 9
5.311 8.685 -47.672 3 4 9
5.404 8.580 -47.672 4 5 10
5.494 8.472 -47.672 1 4 11
5.582 8.363 -47.672 1 4 11
5.667 8.251 -47.672 0 3 10
5.749 8.138 -47.672 0 3 10
5.828 8.022 -47.672 0 2 9
5.905 7.904 -47.672 0 3 10
5.979 7.785 -47.672 0 3 10
6.049 7.664 -47.672 1 4 11
6.117 7.541 -47.672 1 4 11
6.181 7.417 -47.672 4 7 14
6.243 7.291 -47.672 3 6 13
6.301 7.163 -47.672 4 7 14
6.357 7.034 -47.672 6 10 19
6.409 6.904 -47.672 8 12 21
6.457 6.772 -47.672 10 14 23
6.503 6.640 -47.672 13 17 26
6.545 6.506 -47.672 18 22 31
6.585 6.371 -47.672 20 24 33
6.620 6.236 -47.672 25 29 38
6.653 6.099 -47.672 28 32 41
6.682 5.962 -47.672 32 37 43
6.707 5.824 -47.672 34 39 45
6.730 5.686 -47.672 36 41 47
6.749 5.547 -47.672 39 44 50
6.764 5.407 -47.672 41 48 56
6.776 5.268 -47.672 43 50 58
6.785 5.128 -47.672 48 55 63
6.790 4.988 -47.672 45 52 60
6.792 4.847 -47.672 49 56 64
6.790 4.707 -47.672 52 59 67
6.785 4.567 -47.672 52 59 67
6.776 4.427 -47.672 55 62 70
6.764 4.287 -47.672 58 62 71
6.749 4.148 -47.672 58 62 71
6.730 4.009 -47.672 59 63 72
6.707 3.870 -47.672 59 63 72
6.682 3.733 -47.672 58 65 73
6.653 3.595 -47.672 59 66 74
6.620 3.459 -47.672 59 66 74
6.585 3.323 -47.672 59 66 74
6.545 3.189 -47.672 64 69 75
6.503 3.055 -47.672 63 68 74
6.457 2.922 -47.672 65 70 76
6.409 2.791 -47.672 65 70 76
6.357 2.661 -47.672 64 67 74
6.301 2.532 -47.672 66 69 76
6.243 2.404 -47.672 65 68 75
6.181 2.278 -47.672 66 69 76
6.117 2.154 -47.672 65 68 75
6.049 2.031 -47.672 66 69 76
5.979 1.910 -47.672 67 70 77
5.905 1.790 -47.672 66 69 76
5.828 1.673 -47.672 69 74 78
5.749 1.557 -47.672 67 72 78
5.667 1.443 -47.672 67 71 80
5.582 1.332 -47.672 66 70 79
5.494 1.222 -47.672 67 67 77
5.404 1.115 -47.672 67 67 77
5.311 1.010 -47.672 66 69 78
5.216 0.907 -47.672 68 72 81
5.118 0.807 -47.672 65 69 78
5.017 0.709 -47.672 64 68 77
4.915 0.613 -47.672 62 66 75
4.810 0.520 -47.672 61 65 74
4.702 0.430 -47.672 61 64 71
4.593 0.342 -47.672 59 62 69
4.481 0.258 -47.672 57 60 67
4.368 0.175 -47.672 56 59 66
4.252 0.096 -47.672 53 57 66
4.134 0.020 -47.672 49 53 62
4.015 -0.054 -47.672 47 51 60
3.894 -0.125 -47.672 43 47 56
3.771 -0.192 -47.672 41 45 54
3.646 -0.257 -47.672 37 41 50
3.520 -0.318 -47.672 32 36 45
3.393 -0.377 -47.672 29 33 42
3.264 -0.432 -47.672 25 29 38
3.134 -0.484 -47.672 24 28 37
3.002 -0.533 -47.672 25 29 38
2.870 -0.579 -47.672 22 26 35
2.736 -0.621 -47.672 19 23 32
2.601 -0.660 -47.672 18 22 31
2.466 -0.696 -47.672 17 21 30
2.329 -0.728 -47.672 16 20 29
2.192 -0.757 -47.671 17 20 29
2.053 -0.779 -47.641 17 20 29
1.915 -0.799 -47.614 17 20 29
1.776 -0.815 -47.589 17 20 29
1.636 -0.827 -47.563 13 16 25
1.496 -0.836 -47.534 14 17 26
1.357 -0.841 -47.507 12 15 24
1.217 -0.843 -47.482 13 16 25
1.077 -0.842 -47.459 13 16 25
0.938 -0.838 -47.435 13 16 25
0.798 -0.830 -47.409 10 13 22
0.659 -0.818 -47.384 11 14 23
0.521 -0.804 -47.361 10 13 22
0.382 -0.786 -47.339 10 13 22
0.245 -0.765 -47.319 9 12 21
0.108 -0.740 -47.295 9 12 21
-0.029 -0.712 -47.271 13 13 23
-0.164 -0.680 -47.247 14 14 24
-0.299 -0.646 -47.225 11 14 23
-0.433 -0.608 -47.205 9 13 22
-0.565 -0.567 -47.183 10 13 22
-0.697 -0.523 -47.162 10 13 22
-0.827 -0.476 -47.142 9 12 21
-0.957 -0.425 -47.123 9 12 21
-1.085 -0.372 -47.105 11 14 23
-1.211 -0.315 -47.087 10 13 22
-1.336 -0.255 -47.067 10 13 22
-1.460 -0.193 -47.049 10 13 22
-1.582 -0.127 -47.031 9 13 22
-1.702 -0.059 -47.015 8 12 21
-1.821 0.012 -46.999 9 13 22
-1.937 0.087 -46.980 9 13 22
-2.052 0.164 -46.961 8 12 21
-2.165 0.244 -46.939 8 12 21
-2.275 0.327 -46.918 8 12 21
-2.384 0.413 -46.896 8 12 21
-2.489 0.502 -46.869 7 11 20
-2.593 0.593 -46.838 6 10 19
-2.693 0.687 -46.807 8 12 21
-2.792 0.784 -46.774 7 11 20
-2.888 0.882 -46.741 7 11 20
-2.981 0.984 -46.705 7 11 20
-3.071 1.087 -46.668 7 11 20
-3.159 1.193 -46.633 6 10 19
-3.245 1.301 -46.598 8 13 19
-3.327 1.410 -46.565 7 12 18
-3.407 1.521 -46.532 7 12 18
-3.485 1.635 -46.500 8 13 19
-3.559 1.750 -46.469 8 12 21
-3.631 1.866 -46.438 8 12 21
-3.700 1.984 -46.412 7 11 20
-3.766 2.104 -46.386 7 11 20
-3.829 2.225 -46.361 8 12 21
-3.890 2.347 -46.338 8 12 21
-3.947 2.471 -46.314 8 12 21
-4.002 2.596 -46.294 8 12 21
-4.054 2.722 -46.275 7 11 20
-4.102 2.849 -46.256 8 12 21
-4.148 2.978 -46.239 7 11 20
-4.190 3.107 -46.222 7 11 20
-4.230 3.238 -46.206 6 10 19
-4.266 3.369 -46.192 6 10 19
-4.299 3.501 -46.176 6 10 19
-4.328 3.634 -46.156 7 11 20
-4.354 3.767 -46.136 7 14 22
-4.377 3.901 -46.115 6 13 21
-4.396 4.035 -46.094 4 11 19
-4.411 4.170 -46.072 8 15 23
-4.424 4.306 -46.051 15 19 28
-4.433 4.441 -46.031 19 23 32
-4.439 4.576 -46.009 23 27 36
-4.442 4.712 -45.988 30 34 43
-4.441 4.847 -45.965 36 43 51
-4.436 4.983 -45.939 44 51 59
-4.428 5.118 -45.916 53 60 68
-4.417 5.253 -45.892 56 63 71
-4.403 5.387 -45.869 58 65 73
-4.386 5.521 -45.846 58 65 73
-4.365 5.655 -45.821 57 64 72
-4.341 5.787 -45.798 56 63 71
-4.313 5.920 -45.774 56 63 71
-4.283 6.051 -45.753 52 59 67
-4.250 6.182 -45.736 54 61 69
-4.213 6.311 -45.715 54 61 69
-4.173 6.440 -45.694 56 60 69
-4.130 6.568 -45.673 55 59 68
-4.084 6.694 -45.653 55 59 68
-4.036 6.820 -45.635 54 58 67
-3.983 6.943 -45.614 53 57 66
-3.928 7.066 -45.589 53 57 66
-3.869 7.187 -45.563 55 59 68
-3.808 7.306 -45.539 56 60 69
-3.744 7.424 -45.517 52 59 67
-3.677 7.540 -45.493 52 59 67
-3.606 7.655 -45.466 52 59 67
-3.533 7.767 -45.438 52 59 67
-3.458 7.877 -45.408 54 58 69
-3.379 7.986 -45.380 55 59 70
-3.298 8.092 -45.351 55 59 70
-3.214 8.196 -45.319 53 57 68
-3.128 8.298 -45.287 52 59 67
-3.039 8.398 -45.253 52 59 67
-2.948 8.495 -45.220 51 58 66
-2.854 8.590 -45.187 53 60 68
-2.758 8.683 -45.151 51 58 66
-2.660 8.773 -45.115 52 59 67
-2.560 8.860 -45.081 50 57 65
-2.458 8.946 -45.051 52 59 67
-2.355 9.029 -45.025 52 59 67
-2.249 9.110 -45.000 53 60 68
-2.142 9.188 -44.976 54 61 69
-2.033 9.264 -44.954 53 60 68
-1.923 9.337 -44.934 53 60 68
-1.811 9.407 -44.919 53 60 68
-1.697 9.475 -44.903 51 58 66
-1.581 9.540 -44.884 52 59 67
-1.464 9.602 -44.864 53 57 66
-1.346 9.661 -44.842 54 58 67
-1.226 9.717 -44.824 52 56 65
-1.105 9.770 -44.806 54 58 67
-0.982 9.820 -44.783 52 59 67
-0.859 9.866 -44.756 51 58 66
-0.734 9.909 -44.732 52 59 67
-0.608 9.950 -44.711 51 58 66
-0.482 9.988 -44.693 51 58 66
-0.355 10.022 -44.673 51 58 66
-0.227 10.054 -44.653 50 57 65
-0.098 10.082 -44.634 51 58 66
0.031 10.107 -44.611 51 58 66
0.161 10.128 -44.585 49 56 64
0.291 10.145 -44.556 52 59 67
0.422 10.159 -44.525 51 58 66
0.553 10.170 -44.496 50 57 65
0.684 10.179 -44.472 50 57 65
0.815 10.185 -44.451 47 54 62
0.946 10.189 -44.445 48 55 63
1.077 9.748 -47.759 3 4 6
1.197 9.747 -47.759 3 4 8
1.318 9.742 -47.759 3 4 9
1.438 9.735 -47.759 3 3 11
1.558 9.725 -47.759 3 4 9
1.677 9.711 -47.759 3 4 9
1.796 9.695 -47.759 4 5 10
1.915 9.676 -47.759 3 4 9
2.033 9.654 -47.759 5 6 11
2.151 9.629 -47.759 2 3 8
2.268 9.601 -47.759 3 4 9
2.384 9.571 -47.759 3 4 9
2.500 9.537 -47.759 3 3 11
2.614 9.501 -47.759 3 3 11
2.728 9.462 -47.759 3 3 11
2.841 9.420 -47.759 3 3 11
2.953 9.375 -47.759 3 3 11
3.063 9.328 -47.759 3 3 11
3.173 9.278 -47.759 5 5 13
3.281 9.225 -47.759 3 3 11
3.387 9.169 -47.759 1 4 11
3.493 9.112 -47.759 2 5 12
3.597 9.051 -47.759 0 3 10
3.699 8.988 -47.759 0 3 10
3.800 8.922 -47.759 0 0 7
3.899 8.854 -47.759 4 3 11
3.997 8.784 -47.759 4 3 11
4.092 8.711 -47.759 5 4 12
4.186 8.636 -47.759 2 5 12
4.278 8.558 -47.759 0 5 11
4.368 8.479 -47.759 2 7 13
4.457 8.397 -47.759 1 6 12
4.543 8.313 -47.759 2 7 13
4.627 8.227 -47.759 2 7 13
4.708 8.139 -47.759 0 5 11
4.788 8.048 -47.759 3 8 14
4.866 7.956 -47.759 3 7 16
4.941 7.862 -47.759 5 9 18
5.014 7.767 -47.759 8 12 21
5.084 7.669 -47.759 11 15 24
5.152 7.570 -47.759 12 16 25
5.218 7.469 -47.759 16 20 29
5.281 7.367 -47.759 23 27 36
5.341 7.263 -47.759 24 28 37
5.399 7.158 -47.759 23 30 38
5.455 7.051 -47.759 28 35 43
5.508 6.943 -47.759 30 37 45
5.558 6.833 -47.759 33 40 48
5.605 6.723 -47.759 36 43 53
5.650 6.611 -47.759 41 48 58
5.692 6.498 -47.759 40 47 57
5.731 6.385 -47.759 43 50 60
5.767 6.270 -47.759 46 53 63
5.801 6.154 -47.759 43 50 60
5.831 6.038 -47.759 48 55 65
5.859 5.921 -47.759 50 57 67
5.884 5.803 -47.759 53 57 66
5.906 5.685 -47.759 54 59 65
5.925 5.566 -47.759 54 59 65
5.941 5.447 -47.759 57 62 68
5.954 5.328 -47.759 56 60 69
5.965 5.208 -47.759 59 63 72
5.972 5.088 -47.759 58 62 71
5.977 4.968 -47.759 60 64 73
5.978 4.847 -47.759 60 67 73
5.977 4.727 -47.759 58 65 71
5.972 4.607 -47.759 61 68 74
5.965 4.487 -47.759 63 70 76
5.954 4.367 -47.759 63 67 76
5.941 4.247 -47.759 65 69 78
5.925 4.128 -47.759 65 69 78
5.906 4.009 -47.759 64 68 77
5.884 3.891 -47.759 65 69 78
5.859 3.774 -47.759 64 68 77
5.831 3.657 -47.759 62 66 75
5.801 3.540 -47.759 63 67 76
5.767 3.425 -47.759 65 70 76
5.731 3.310 -47.759 64 69 73
5.692 3.196 -47.759 65 70 74
5.650 3.084 -47.759 65 70 74
5.605 2.972 -47.759 69 69 77
5.558 2.861 -47.759 69 69 77
5.508 2.752 -47.759 68 68 76
5.455 2.644 -47.759 67 67 75
5.399 2.537 -47.759 65 68 77
5.341 2.432 -47.759 60 63 72
5.281 2.328 -47.759 55 58 67
5.218 2.225 -47.759 52 55 64
5.152 2.125 -47.759 51 56 60
5.084 2.025 -47.759 49 54 60
5.014 1.928 -47.759 42 46 55
4.941 1.832 -47.759 40 44 53
4.866 1.738 -47.759 36 39 48
4.788 1.646 -47.759 34 37 46
4.708 1.556 -47.759 26 30 39
4.627 1.468 -47.759 26 33 41
4.543 1.382 -47.759 21 28 36
4.457 1.298 -47.759 20 27 35
4.368 1.216 -47.759 18 25 33
4.278 1.136 -47.759 17 24 32
4.186 1.059 -47.759 18 23 29
4.092 0.984 -47.759 17 22 28
3.997 0.911 -47.759 15 20 26
3.899 0.840 -47.759 15 20 26
3.800 0.772 -47.759 15 19 28
3.699 0.707 -47.759 13 17 26
3.597 0.644 -47.759 12 16 25
3.493 0.583 -47.759 11 15 24
3.387 0.525 -47.759 9 13 22
3.281 0.470 -47.759 9 13 22
3.173 0.417 -47.759 10 14 23
3.063 0.367 -47.759 10 14 23
2.953 0.320 -47.759 7 14 22
2.841 0.275 -47.759 7 14 22
2.728 0.233 -47.759 7 14 22
2.614 0.194 -47.759 7 14 22
2.500 0.158 -47.759 9 13 22
2.384 0.124 -47.759 9 13 22
2.268 0.093 -47.759 8 12 21
2.151 0.066 -47.759 8 12 21
2.033 0.041 -47.759 8 12 21
1.915 0.019 -47.759 9 13 22
1.796 -0.000 -47.759 8 12 21
1.677 -0.017 -47.759 7 11 20
1.558 -0.030 -47.759 8 12 21
1.438 -0.040 -47.759 8 12 21
1.318 -0.048 -47.759 8 12 21
1.197 -0.052 -47.759 8 12 21
1.077 -0.051 -47.733 8 12 21
0.957 -0.047 -47.707 8 12 21
0.837 -0.040 -47.683 8 12 21
0.717 -0.030 -47.659 8 12 21
0.598 -0.018 -47.635 8 12 21
0.479 -0.002 -47.612 8 12 21
0.361 0.016 -47.590 6 10 19
0.243 0.037 -47.568 7 11 20
0.125 0.061 -47.545 8 11 20
0.009 0.088 -47.522 8 11 20
-0.107 0.118 -47.499 7 11 20
-0.223 0.151 -47.477 6 13 21
-0.337 0.186 -47.456 8 12 21
-0.450 0.224 -47.434 7 11 20
-0.562 0.265 -47.412 7 11 20
-0.674 0.309 -47.392 7 11 20
-0.784 0.355 -47.372 9 9 19
-0.893 0.404 -47.350 10 10 20
-1.000 0.455 -47.328 7 7 17
-1.106 0.510 -47.306 9 9 19
-1.211 0.566 -47.285 6 10 19
-1.314 0.626 -47.264 4 11 19
-1.416 0.687 -47.243 5 12 20
-1.516 0.751 -47.222 4 11 19
-1.615 0.818 -47.200 8 12 21
-1.712 0.887 -47.178 7 11 20
-1.807 0.959 -47.155 6 10 19
-1.900 1.032 -47.132 6 10 19
-1.991 1.109 -47.105 8 12 21
-2.080 1.187 -47.074 6 10 19
-2.167 1.268 -47.042 6 10 19
-2.251 1.351 -47.010 7 11 20
-2.334 1.436 -46.979 7 11 20
-2.414 1.523 -46.948 7 11 20
-2.493 1.612 -46.916 7 11 20
-2.569 1.703 -46.884 7 11 20
-2.642 1.795 -46.852 8 13 19
-2.713 1.889 -46.820 8 13 19
-2.782 1.985 -46.788 7 12 18
-2.849 2.082 -46.757 6 11 17
-2.913 2.181 -46.727 5 9 18
-2.975 2.281 -46.698 8 12 21
-3.035 2.383 -46.672 8 12 21
-3.092 2.486 -46.646 8 12 21
-3.146 2.590 -46.621 8 12 21
-3.198 2.695 -46.597 8 12 21
-3.247 2.802 -46.573 7 11 20
-3.295 2.909 -46.552 7 11 20
-3.339 3.018 -46.531 7 14 22
-3.381 3.128 -46.512 7 14 22
-3.420 3.238 -46.497 6 13 21
-3.457 3.349 -46.483 6 13 21
-3.491 3.461 -46.472 8 12 21
-3.523 3.574 -46.463 8 12 21
-3.552 3.688 -46.455 9 13 22
-3.578 3.802 -46.446 9 13 22
-3.602 3.917 -46.437 5 12 20
-3.623 4.032 -46.431 7 14 22
-3.641 4.147 -46.428 10 17 25
-3.657 4.263 -46.427 14 21 29
-3.670 4.380 -46.428 22 26 35
-3.680 4.496 -46.430 25 29 38
-3.687 4.613 -46.431 30 34 43
-3.692 4.730 -46.434 43 47 56
-3.693 4.847 -46.434 47 54 62
-3.692 4.964 -46.434 52 59 67
-3.687 5.081 -46.433 58 65 73
-3.680 5.198 -46.428 58 65 73
-3.669 5.315 -46.421 58 65 73
-3.655 5.431 -46.410 58 65 73
-3.638 5.547 -46.396 58 65 73
-3.618 5.662 -46.381 57 64 72
-3.595 5.777 -46.367 57 64 72
-3.570 5.891 -46.354 55 62 70
-3.541 6.004 -46.343 55 62 70
-3.510 6.117 -46.327 54 61 69
-3.476 6.229 -46.311 55 59 68
-3.439 6.339 -46.294 57 61 70
-3.400 6.449 -46.278 57 61 70
-3.358 6.558 -46.265 56 60 69
-3.313 6.666 -46.247 55 59 68
-3.265 6.772 -46.226 55 59 68
-3.215 6.877 -46.204 52 56 65
-3.162 6.981 -46.183 52 56 65
-3.107 7.084 -46.165 51 58 66
-3.049 7.185 -46.145 51 58 66
-2.988 7.284 -46.120 53 60 68
-2.925 7.381 -46.092 52 59 67
-2.859 7.477 -46.063 55 59 70
-2.791 7.571 -46.035 55 59 70
-2.721 7.664 -46.007 57 61 72
-2.648 7.754 -45.975 56 60 71
-2.573 7.843 -45.942 52 59 67
-2.496 7.929 -45.908 52 59 67
-2.417 8.014 -45.875 54 61 69
-2.336 8.097 -45.844 54 61 69
-2.252 8.177 -45.809 53 60 68
-2.167 8.255 -45.774 54 61 69
-2.081 8.331 -45.742 53 60 68
-1.992 8.406 -45.713 54 61 69
-1.903 8.478 -45.689 55 62 70
-1.811 8.548 -45.664 52 59 67
-1.718 8.616 -45.641 55 62 70
-1.623 8.682 -45.619 57 64 72
-1.527 8.745 -45.598 57 64 72
-1.430 8.807 -45.583 57 64 72
-1.331 8.866 -45.568 58 65 73
-1.231 8.922 -45.550 55 62 70
-1.130 8.976 -45.530 58 62 71
-1.027 9.027 -45.507 58 62 71
-0.923 9.076 -45.489 56 60 69
-0.818 9.122 -45.472 59 63 72
-0.711 9.165 -45.450 55 62 70
-0.604 9.205 -45.422 51 58 66
-0.495 9.243 -45.397 53 60 68
-0.386 9.278 -45.373 53 60 68
-0.277 9.310 -45.354 52 59 67
-0.166 9.340 -45.333 56 63 71
-0.055 9.368 -45.312 54 61 69
0.057 9.392 -45.293 53 60 68
0.169 9.414 -45.270 52 59 67
0.282 9.432 -45.247 53 60 68
0.395 9.448 -45.222 55 62 70
0.508 9.461 -45.193 53 60 68
0.622 9.470 -45.161 55 62 70
0.736 9.477 -45.132 54 61 69
0.850 9.481 -45.100 54 61 69
0.963 9.482 -45.066 52 59 67
1.077 8.933 -47.833 3 4 6
1.177 8.932 -47.833 3 4 8
1.278 8.928 -47.833 3 4 9
1.378 8.922 -47.833 3 3 11
1.478 8.914 -47.833 3 4 9
1.577 8.903 -47.833 3 4 9
1.677 8.889 -47.833 4 5 10
1.776 8.873 -47.833 3 4 9
1.874 8.855 -47.833 4 5 10
1.972 8.834 -47.833 3 4 9
2.070 8.811 -47.833 3 4 9
2.167 8.785 -47.833 3 4 9
2.263 8.757 -47.833 2 2 10
2.359 8.727 -47.833 2 2 10
2.454 8.695 -47.833 3 3 11
2.548 8.660 -47.833 4 4 12
2.641 8.622 -47.833 2 2 12
2.733 8.583 -47.833 2 2 12
2.824 8.541 -47.833 4 4 14
2.914 8.497 -47.833 3 3 13
3.003 8.451 -47.833 1 4 11
3.091 8.403 -47.833 0 5 11
3.178 8.352 -47.833 4 9 15
3.263 8.299 -47.833 5 10 16
3.347 8.245 -47.833 2 6 15
3.430 8.188 -47.833 2 6 15
3.511 8.129 -47.833 6 10 19
3.591 8.069 -47.833 6 10 19
3.669 8.006 -47.833 11 15 24
3.746 7.941 -47.833 12 19 27
3.821 7.875 -47.833 15 22 30
3.895 7.807 -47.833 19 26 34
3.966 7.737 -47.833 22 29 37
4.036 7.665 -47.833 24 33 40
4.105 7.591 -47.833 24 33 40
4.171 7.516 -47.833 30 39 46
4.236 7.439 -47.833 31 38 46
4.298 7.361 -47.833 34 41 49
4.359 7.281 -47.833 36 43 51
4.418 7.200 -47.833 38 45 53
4.475 7.117 -47.833 41 48 56
4.529 7.033 -47.833 42 49 57
4.582 6.948 -47.833 46 53 61
4.632 6.861 -47.833 45 52 60
4.681 6.773 -47.833 50 55 61
4.727 6.684 -47.833 50 55 59
4.771 6.594 -47.833 51 56 60
4.813 6.503 -47.833 52 57 61
4.852 6.411 -47.833 51 58 64
4.889 6.318 -47.833 51 60 65
4.924 6.224 -47.833 53 62 67
4.957 6.129 -47.833 54 63 68
4.987 6.033 -47.833 53 62 67
5.015 5.937 -47.833 55 64 69
5.041 5.840 -47.833 56 65 70
5.064 5.743 -47.833 56 65 70
5.085 5.644 -47.833 63 68 74
5.103 5.546 -47.833 63 68 74
5.119 5.447 -47.833 62 67 73
5.133 5.348 -47.833 59 64 70
5.144 5.248 -47.833 64 67 76
5.152 5.148 -47.833 67 70 79
5.158 5.048 -47.833 65 68 77
5.162 4.948 -47.833 65 68 77
5.163 4.847 -47.833 62 69 75
5.162 4.747 -47.833 62 70 73
5.158 4.647 -47.833 62 70 73
5.152 4.547 -47.833 60 68 71
5.144 4.447 -47.833 61 65 74
5.133 4.347 -47.833 61 65 74
5.119 4.248 -47.833 62 66 75
5.103 4.149 -47.833 59 63 72
5.085 4.050 -47.833 57 60 69
5.064 3.952 -47.833 55 58 67
5.041 3.854 -47.833 53 56 65
5.015 3.758 -47.833 50 53 62
4.987 3.661 -47.833 43 47 56
4.957 3.566 -47.833 40 44 53
4.924 3.471 -47.833 33 37 46
4.889 3.377 -47.833 31 35 44
4.852 3.284 -47.833 26 31 37
4.813 3.191 -47.833 25 30 36
4.771 3.100 -47.833 23 28 34
4.727 3.010 -47.833 20 25 31
4.681 2.921 -47.833 20 23 32
4.632 2.833 -47.833 17 20 29
4.582 2.747 -47.833 19 22 31
4.529 2.661 -47.833 17 20 29
4.475 2.577 -47.833 15 20 26
4.418 2.495 -47.833 14 19 25
4.359 2.413 -47.833 14 18 27
4.298 2.333 -47.833 11 15 24
4.236 2.255 -47.833 10 13 22
4.171 2.178 -47.833 9 13 22
4.105 2.103 -47.833 10 17 25
4.036 2.030 -47.833 7 16 23
3.966 1.958 -47.833 8 17 24
3.895 1.888 -47.833 7 16 23
3.821 1.820 -47.833 7 16 23
3.746 1.753 -47.833 6 15 22
3.669 1.689 -47.833 7 14 20
3.591 1.626 -47.833 7 14 20
3.511 1.565 -47.833 7 14 20
3.430 1.507 -47.833 7 14 20
3.347 1.450 -47.833 8 12 21
3.263 1.395 -47.833 8 12 21
3.178 1.343 -47.833 8 12 21
3.091 1.292 -47.833 8 12 21
3.003 1.244 -47.833 8 12 21
2.914 1.198 -47.833 8 12 21
2.824 1.154 -47.833 8 12 21
2.733 1.112 -47.833 8 12 21
2.641 1.072 -47.833 7 14 22
2.548 1.035 -47.833 6 15 22
2.454 1.000 -47.833 3 12 19
2.359 0.968 -47.833 4 13 20
2.263 0.937 -47.833 7 11 20
2.167 0.909 -47.833 7 11 20
2.070 0.884 -47.833 8 12 21
1.972 0.861 -47.833 8 12 21
1.874 0.840 -47.833 6 13 21
1.776 0.821 -47.833 7 14 22
1.677 0.806 -47.833 6 13 21
1.577 0.792 -47.833 5 12 20
1.478 0.781 -47.833 6 13 21
1.378 0.772 -47.833 6 13 21
1.278 0.766 -47.833 6 13 21
1.177 0.763 -47.833 6 13 21
1.077 0.761 -47.833 6 13 21
0.977 0.763 -47.833 6 13 21
0.877 0.766 -47.833 9 16 24
0.777 0.772 -47.833 9 16 24
0.677 0.781 -47.833 8 15 23
0.577 0.792 -47.833 9 16 24
0.478 0.806 -47.827 13 20 28
0.379 0.824 -47.804 12 19 27
0.281 0.844 -47.780 14 17 26
0.183 0.867 -47.757 13 17 26
0.086 0.892 -47.734 11 18 26
-0.010 0.919 -47.710 11 20 27
-0.105 0.949 -47.685 12 19 27
-0.200 0.981 -47.660 13 20 28
-0.294 1.015 -47.637 15 22 30
-0.387 1.052 -47.615 15 22 30
-0.479 1.090 -47.593 17 21 30
-0.570 1.132 -47.570 19 23 32
-0.660 1.175 -47.545 18 22 31
-0.748 1.220 -47.521 19 23 32
-0.836 1.268 -47.499 19 26 34
-0.922 1.317 -47.477 18 27 34
-1.008 1.369 -47.455 16 25 32
-1.091 1.423 -47.433 16 25 32
-1.174 1.479 -47.410 18 22 31
-1.255 1.536 -47.388 18 22 31
-1.334 1.596 -47.369 19 23 32
-1.412 1.657 -47.348 17 21 30
-1.489 1.721 -47.326 20 24 33
-1.563 1.786 -47.300 17 21 30
-1.636 1.854 -47.273 19 23 32
-1.707 1.923 -47.244 19 23 32
-1.776 1.994 -47.217 18 22 31
-1.844 2.066 -47.190 18 22 31
-1.910 2.140 -47.164 16 20 29
-1.974 2.216 -47.137 16 20 29
-2.036 2.293 -47.110 15 20 26
-2.096 2.371 -47.082 15 20 26
-2.154 2.451 -47.055 17 22 28
-2.209 2.533 -47.027 15 20 26
-2.263 2.615 -46.999 15 19 28
-2.315 2.699 -46.970 15 19 28
-2.365 2.784 -46.945 16 20 29
-2.413 2.870 -46.923 16 20 29
-2.459 2.957 -46.902 16 20 29
-2.503 3.045 -46.879 16 20 29
-2.544 3.135 -46.857 15 19 28
-2.584 3.225 -46.836 15 19 28
-2.621 3.316 -46.814 13 20 28
-2.656 3.407 -46.795 15 24 31
-2.689 3.500 -46.779 14 23 30
-2.720 3.593 -46.769 13 22 29
-2.749 3.687 -46.763 14 18 27
-2.776 3.781 -46.759 14 18 27
-2.801 3.876 -46.757 15 19 28
-2.823 3.971 -46.755 15 19 28
-2.844 4.067 -46.754 13 20 28
-2.862 4.164 -46.756 12 19 27
-2.878 4.261 -46.762 16 23 31
-2.892 4.358 -46.772 19 26 34
-2.904 4.455 -46.785 22 26 35
-2.913 4.553 -46.802 31 35 44
-2.921 4.651 -46.817 42 46 55
-2.926 4.749 -46.835 50 54 63
-2.928 4.847 -46.847 55 62 70
-2.928 4.946 -46.860 56 63 71
-2.925 5.044 -46.870 57 64 72
-2.920 5.142 -46.877 57 64 72
-2.911 5.240 -46.879 58 65 73
-2.900 5.338 -46.878 58 65 73
-2.887 5.435 -46.872 55 62 70
-2.871 5.532 -46.866 54 61 69
-2.852 5.629 -46.858 53 60 68
-2.831 5.725 -46.850 55 62 70
-2.808 5.820 -46.843 54 61 69
-2.782 5.915 -46.832 53 60 68
-2.753 6.009 -46.820 56 60 69
-2.723 6.103 -46.807 56 60 69
-2.690 6.195 -46.794 56 60 69
-2.655 6.287 -46.782 55 59 68
-2.617 6.378 -46.766 55 59 68
-2.577 6.467 -46.749 55 59 68
-2.535 6.556 -46.729 55 59 68
-2.491 6.643 -46.714 55 59 68
-2.444 6.730 -46.699 53 60 68
-2.396 6.815 -46.681 52 59 67
-2.345 6.898 -46.658 51 58 66
-2.292 6.981 -46.633 52 59 67
-2.237 7.062 -46.606 55 59 70
-2.180 7.141 -46.580 55 59 70
-2.120 7.219 -46.553 53 57 68
-2.059 7.295 -46.522 56 60 71
-1.996 7.370 -46.491 55 62 70
-1.932 7.443 -46.460 52 59 67
-1.865 7.514 -46.429 54 61 69
-1.797 7.584 -46.398 54 61 69
-1.727 7.651 -46.361 54 61 69
-1.655 7.717 -46.325 54 61 69
-1.582 7.781 -46.292 54 61 69
-1.508 7.844 -46.263 54 61 69
-1.432 7.905 -46.239 54 61 69
-1.355 7.964 -46.213 55 62 70
-1.277 8.021 -46.188 55 62 70
-1.197 8.076 -46.166 56 63 71
-1.116 8.130 -46.146 57 64 72
-1.034 8.181 -46.129 57 64 72
-0.951 8.231 -46.114 57 64 72
-0.867 8.279 -46.095 57 64 72
-0.781 8.324 -46.075 59 63 72
-0.694 8.367 -46.052 59 63 72
-0.607 8.408 -46.034 61 65 74
-0.518 8.447 -46.017 57 61 70
-0.429 8.483 -45.996 57 64 72
-0.338 8.517 -45.969 57 64 72
-0.247 8.549 -45.944 57 64 72
-0.155 8.578 -45.922 57 64 72
-0.063 8.606 -45.904 57 64 72
0.030 8.631 -45.885 56 63 71
0.124 8.655 -45.867 56 63 71
0.218 8.676 -45.851 55 62 70
0.312 8.694 -45.829 58 65 73
0.407 8.710 -45.807 56 63 71
0.502 8.723 -45.784 55 62 70
0.598 8.733 -45.753 56 63 71
0.694 8.741 -45.717 55 62 70
0.790 8.747 -45.687 57 64 72
0.885 8.750 -45.659 55 62 70
0.981 8.751 -45.625 57 64 72
1.077 8.117 -47.893 1 5 6
1.157 8.117 -47.893 3 7 10
1.238 8.114 -47.893 0 2 7
1.318 8.109 -47.893 0 3 10
1.398 8.102 -47.893 1 4 11
1.477 8.093 -47.893 1 4 13
1.557 8.082 -47.893 1 4 13
1.636 8.069 -47.893 3 7 16
1.715 8.055 -47.893 1 8 16
1.794 8.038 -47.893 0 3 12
1.872 8.019 -47.893 3 7 16
1.949 7.999 -47.893 6 9 18
2.026 7.977 -47.893 4 7 16
2.103 7.952 -47.893 7 10 19
2.179 7.926 -47.893 7 10 19
2.254 7.898 -47.893 10 13 22
2.329 7.869 -47.893 10 12 24
2.402 7.837 -47.893 15 17 29
2.475 7.804 -47.893 14 16 28
2.547 7.768 -47.893 18 20 32
2.619 7.731 -47.893 20 24 35
2.689 7.693 -47.893 21 28 38
2.758 7.652 -47.893 25 32 42
2.827 7.610 -47.893 30 37 47
2.894 7.566 -47.893 28 35 45
2.960 7.521 -47.893 35 39 50
3.025 7.474 -47.893 34 38 49
3.089 7.425 -47.893 36 40 51
3.152 7.375 -47.893 37 41 50
3.213 7.324 -47.893 40 44 53
3.273 7.270 -47.893 43 47 56
3.332 7.216 -47.893 40 44 53
3.390 7.160 -47.893 46 51 57
3.446 7.102 -47.893 46 51 57
3.500 7.043 -47.893 48 53 59
3.553 6.983 -47.893 48 53 59
3.605 6.922 -47.893 50 57 65
3.655 6.859 -47.893 48 57 64
3.704 6.795 -47.893 48 57 64
3.751 6.730 -47.893 50 59 66
3.796 6.664 -47.893 51 60 67
3.840 6.597 -47.893 52 61 68
3.882 6.529 -47.893 52 61 68
3.923 6.459 -47.893 55 64 71
3.961 6.389 -47.893 58 63 67
3.998 6.318 -47.893 61 65 68
4.033 6.246 -47.893 63 68 71
4.067 6.173 -47.893 60 68 70
4.098 6.099 -47.893 58 66 68
4.128 6.024 -47.893 59 64 67
4.156 5.949 -47.893 64 69 72
4.182 5.873 -47.893 61 66 69
4.207 5.797 -47.893 57 65 68
4.229 5.720 -47.893 55 62 68
4.249 5.642 -47.893 62 69 75
4.268 5.564 -47.893 63 70 76
4.285 5.485 -47.893 57 64 70
4.299 5.406 -47.893 62 69 75
4.312 5.327 -47.893 62 69 75
4.323 5.248 -47.893 59 66 72
4.332 5.168 -47.893 57 60 67
4.338 5.088 -47.893 54 57 64
4.343 5.008 -47.893 48 51 58
4.346 4.928 -47.893 45 48 55
4.347 4.847 -47.893 40 45 51
4.346 4.767 -47.893 36 40 49
4.343 4.687 -47.893 30 34 43
4.338 4.607 -47.893 23 27 36
4.332 4.527 -47.893 21 28 34
4.323 4.447 -47.893 20 27 33
4.312 4.367 -47.893 17 24 30
4.299 4.288 -47.893 17 24 30
4.285 4.209 -47.893 18 25 33
4.268 4.131 -47.893 17 21 30
4.249 4.053 -47.893 15 19 28
4.229 3.975 -47.893 13 17 26
4.207 3.898 -47.893 11 18 26
4.182 3.822 -47.893 11 18 26
4.156 3.746 -47.893 9 16 24
4.128 3.670 -47.893 7 14 22
4.098 3.596 -47.893 10 14 23
4.067 3.522 -47.893 9 13 22
4.033 3.449 -47.893 10 14 23
3.998 3.377 -47.893 8 12 21
3.961 3.306 -47.893 8 12 23
3.923 3.235 -47.893 8 12 23
3.882 3.166 -47.893 10 14 25
3.840 3.098 -47.893 9 13 24
3.796 3.031 -47.893 8 12 21
3.751 2.964 -47.893 8 12 21
3.704 2.899 -47.893 7 11 22
3.655 2.835 -47.893 8 12 23
3.605 2.773 -47.893 7 14 24
3.553 2.711 -47.893 5 12 22
3.500 2.651 -47.893 6 15 24
3.446 2.592 -47.893 5 14 23
3.390 2.535 -47.893 4 13 22
3.332 2.479 -47.893 5 14 23
3.273 2.424 -47.893 5 14 23
3.213 2.371 -47.893 6 15 24
3.152 2.319 -47.893 6 15 24
3.089 2.269 -47.893 7 16 25
3.025 2.221 -47.893 9 18 27
2.960 2.174 -47.893 10 19 28
2.894 2.128 -47.893 14 18 27
2.827 2.085 -47.893 15 20 26
2.758 2.042 -47.893 16 21 27
2.689 2.002 -47.893 15 20 26
2.619 1.963 -47.893 19 24 30
2.547 1.926 -47.893 18 23 29
2.475 1.891 -47.893 19 24 30
2.402 1.858 -47.893 20 25 31
2.329 1.826 -47.893 19 26 32
2.254 1.796 -47.893 19 28 33
2.179 1.768 -47.893 20 29 34
2.103 1.742 -47.893 19 28 33
2.026 1.718 -47.893 21 28 34
1.949 1.696 -47.893 22 29 35
1.872 1.675 -47.893 23 30 36
1.794 1.657 -47.893 23 30 36
1.715 1.640 -47.893 25 32 38
1.636 1.625 -47.893 25 34 39
1.557 1.613 -47.893 27 36 41
1.477 1.602 -47.893 25 34 39
1.398 1.593 -47.893 30 37 45
1.318 1.586 -47.893 30 34 43
1.238 1.581 -47.893 30 34 43
1.157 1.578 -47.893 32 36 45
1.077 1.577 -47.893 30 37 43
0.997 1.578 -47.893 29 38 43
0.917 1.581 -47.893 28 37 42
0.837 1.586 -47.893 29 38 43
0.757 1.593 -47.893 31 38 44
0.677 1.602 -47.893 36 41 47
0.597 1.613 -47.893 37 42 48
0.518 1.625 -47.893 36 41 47
0.439 1.640 -47.893 35 40 46
0.361 1.657 -47.893 35 40 46
0.283 1.675 -47.893 36 41 47
0.205 1.696 -47.893 39 44 50
0.128 1.718 -47.893 33 40 48
0.051 1.742 -47.893 33 42 49
-0.024 1.768 -47.893 34 43 50
-0.100 1.796 -47.893 34 43 50
-0.174 1.826 -47.893 35 42 48
-0.248 1.859 -47.873 36 41 47
-0.320 1.894 -47.847 33 38 44
-0.391 1.931 -47.820 33 38 44
-0.461 1.969 -47.796 33 38 44
-0.531 2.009 -47.773 30 35 41
-0.599 2.051 -47.748 34 39 45
-0.666 2.094 -47.723 28 33 39
-0.733 2.139 -47.698 26 30 39
-0.798 2.185 -47.676 21 25 36
-0.862 2.233 -47.657 11 15 26
-0.924 2.283 -47.637 0 4 15
-0.986 2.334 -47.615 4 7 16
-1.046 2.386 -47.591 8 8 16
-1.104 2.440 -47.565 13 16 23
-1.162 2.496 -47.538 7 12 18
-1.218 2.553 -47.513 2 6 15
-1.272 2.611 -47.491 1 5 16
-1.325 2.670 -47.469 2 6 17
-1.377 2.730 -47.446 3 7 18
-1.427 2.792 -47.423 2 5 12
-1.475 2.855 -47.399 2 5 12
-1.522 2.920 -47.374 3 6 13
-1.567 2.985 -47.348 6 9 16
-1.611 3.051 -47.322 12 17 23
-1.652 3.119 -47.293 13 18 24
-1.693 3.187 -47.268 0 4 10
-1.731 3.256 -47.248 0 5 11
-1.769 3.326 -47.230 3 6 13
-1.804 3.397 -47.210 2 5 12
-1.837 3.469 -47.188 1 4 11
-1.869 3.541 -47.172 2 5 12
-1.899 3.614 -47.154 3 10 18
-1.928 3.688 -47.138 5 12 20
-1.954 3.763 -47.122 14 21 29
-1.979 3.838 -47.112 4 11 19
-2.003 3.913 -47.110 3 8 14
-2.025 3.989 -47.111 4 9 15
-2.045 4.065 -47.114 4 9 15
-2.064 4.142 -47.117 3 8 14
-2.081 4.219 -47.126 0 6 14
-2.096 4.297 -47.141 0 7 15
-2.110 4.375 -47.161 4 11 19
-2.122 4.453 -47.183 6 13 21
-2.133 4.531 -47.209 15 22 30
-2.141 4.610 -47.236 27 34 42
-2.148 4.689 -47.263 42 49 57
-2.153 4.768 -47.291 50 57 65
-2.155 4.847 -47.312 53 60 68
-2.155 4.927 -47.333 55 62 70
-2.154 5.006 -47.351 56 63 71
-2.150 5.085 -47.366 55 62 70
-2.144 5.165 -47.376 55 62 70
-2.135 5.244 -47.382 57 64 72
-2.125 5.322 -47.383 56 63 71
-2.112 5.401 -47.384 57 64 72
-2.097 5.479 -47.382 55 62 70
-2.081 5.556 -47.380 53 60 68
-2.062 5.634 -47.378 54 61 69
-2.042 5.710 -47.371 54 61 69
-2.019 5.787 -47.363 53 60 68
-1.994 5.862 -47.353 53 60 68
-1.968 5.937 -47.343 53 60 68
-1.940 6.011 -47.333 53 60 68
-1.909 6.084 -47.319 51 58 66
-1.877 6.157 -47.304 53 60 68
-1.843 6.229 -47.287 51 58 66
-1.807 6.299 -47.273 52 59 67
-1.770 6.369 -47.260 53 57 66
-1.731 6.438 -47.245 55 62 70
-1.690 6.506 -47.225 51 60 69
-1.647 6.573 -47.202 51 60 69
-1.603 6.638 -47.180 55 59 68
-1.557 6.702 -47.155 56 59 68
-1.509 6.766 -47.129 55 58 67
-1.460 6.827 -47.100 56 59 68
-1.409 6.888 -47.071 54 57 64
-1.357 6.947 -47.042 58 61 68
-1.303 7.005 -47.014 58 61 68
-1.248 7.061 -46.983 57 60 67
-1.191 7.116 -46.947 59 62 69
-1.133 7.169 -46.911 59 62 69
-1.074 7.221 -46.878 56 59 66
-1.014 7.272 -46.850 59 62 69
-0.953 7.321 -46.824 60 63 70
-0.891 7.369 -46.798 59 62 69
-0.827 7.415 -46.775 56 59 66
-0.763 7.460 -46.753 58 61 68
-0.697 7.503 -46.733 61 64 71
-0.631 7.545 -46.717 58 61 68
-0.564 7.585 -46.700 57 60 67
-0.496 7.624 -46.682 60 63 70
-0.426 7.660 -46.663 60 63 70
-0.356 7.695 -46.643 61 64 71
-0.286 7.729 -46.628 60 63 70
-0.214 7.760 -46.612 60 63 70
-0.142 7.790 -46.591 58 65 73
-0.068 7.817 -46.567 57 66 73
0.005 7.843 -46.544 56 65 72
0.080 7.867 -46.526 57 66 73
0.154 7.890 -46.508 56 65 70
0.230 7.910 -46.490 55 64 69
0.305 7.929 -46.472 58 67 74
0.381 7.946 -46.456 56 65 72
0.458 7.961 -46.437 57 64 70
0.535 7.974 -46.416 60 65 71
0.612 7.985 -46.396 60 65 71
0.689 7.993 -46.365 60 65 71
0.767 8.000 -46.327 59 63 72
0.844 8.004 -46.291 59 62 71
0.922 8.007 -46.259 61 64 73
1.000 8.007 -46.218 59 62 71
1.077 7.301 -47.940 5 11 11
1.137 7.300 -47.940 4 9 12
1.198 7.298 -47.940 6 11 15
1.258 7.294 -47.940 8 13 19
1.318 7.289 -47.940 11 16 22
1.378 7.282 -47.940 12 17 23
1.437 7.274 -47.940 15 22 28
1.497 7.265 -47.940 18 27 32
1.556 7.254 -47.940 18 29 35
1.615 7.241 -47.940 14 27 33
1.673 7.227 -47.940 23 34 40
1.732 7.212 -47.940 28 37 44
1.789 7.195 -47.940 26 35 40
1.847 7.177 -47.940 29 38 43
1.904 7.157 -47.940 29 38 43
1.960 7.136 -47.940 33 42 47
2.016 7.114 -47.940 38 42 51
2.071 7.090 -47.940 35 39 48
2.126 7.065 -47.940 37 41 50
2.180 7.039 -47.940 40 44 53
2.234 7.011 -47.940 41 48 56
2.286 6.982 -47.940 40 47 55
2.338 6.952 -47.940 43 50 58
2.390 6.920 -47.940 42 49 57
2.440 6.887 -47.940 47 51 60
2.490 6.853 -47.940 47 51 60
2.539 6.818 -47.940 46 50 59
2.587 6.781 -47.940 48 52 61
2.634 6.744 -47.940 48 53 59
2.680 6.705 -47.940 49 54 60
2.725 6.665 -47.940 49 54 60
2.769 6.624 -47.940 54 59 65
2.812 6.582 -47.940 54 59 65
2.854 6.539 -47.940 54 59 65
2.895 6.495 -47.940 53 58 64
2.935 6.450 -47.940 55 60 66
2.974 6.404 -47.940 55 62 68
3.011 6.357 -47.940 57 64 70
3.048 6.309 -47.940 56 63 69
3.083 6.260 -47.940 56 63 69
3.117 6.210 -47.940 55 62 68
3.150 6.160 -47.940 56 63 69
3.182 6.109 -47.940 57 64 70
3.212 6.057 -47.940 58 65 71
3.241 6.004 -47.940 58 63 67
3.269 5.950 -47.940 60 65 69
3.295 5.896 -47.940 57 65 68
3.320 5.842 -47.940 56 64 67
3.344 5.786 -47.940 59 64 70
3.366 5.730 -47.940 56 61 67
3.387 5.674 -47.940 51 56 62
3.407 5.617 -47.940 48 53 59
3.425 5.560 -47.940 44 51 57
3.442 5.502 -47.940 40 47 53
3.457 5.443 -47.940 33 40 46
3.471 5.385 -47.940 31 38 44
3.483 5.326 -47.940 24 31 37
3.494 5.267 -47.940 23 30 36
3.504 5.207 -47.940 21 28 34
3.512 5.148 -47.940 19 26 32
3.519 5.088 -47.940 16 21 27
3.524 5.028 -47.940 17 22 28
3.528 4.968 -47.940 16 21 27
3.530 4.908 -47.940 15 20 26
3.531 4.847 -47.940 12 16 25
3.530 4.787 -47.940 10 17 25
3.528 4.727 -47.940 7 14 22
3.524 4.667 -47.940 9 16 24
3.519 4.607 -47.940 7 14 20
3.512 4.547 -47.940 8 15 21
3.504 4.487 -47.940 6 13 19
3.494 4.428 -47.940 6 13 19
3.483 4.369 -47.940 6 13 21
3.471 4.310 -47.940 7 14 22
3.457 4.251 -47.940 6 13 21
3.442 4.193 -47.940 6 13 21
3.425 4.135 -47.940 7 14 22
3.407 4.078 -47.940 7 14 22
3.387 4.021 -47.940 5 12 20
3.366 3.964 -47.940 6 13 21
3.344 3.908 -47.940 7 11 20
3.320 3.853 -47.940 8 12 21
3.295 3.798 -47.940 8 12 21
3.269 3.744 -47.940 8 12 21
3.241 3.691 -47.940 6 10 19
3.212 3.638 -47.940 8 12 21
3.182 3.586 -47.940 10 14 23
3.150 3.535 -47.940 12 16 25
3.117 3.484 -47.940 11 15 24
3.083 3.435 -47.940 13 17 26
3.048 3.386 -47.940 19 23 32
3.011 3.338 -47.940 20 24 33
2.974 3.291 -47.940 15 22 30
2.935 3.245 -47.940 21 28 36
2.895 3.200 -47.940 23 30 38
2.854 3.156 -47.940 22 29 37
2.812 3.113 -47.940 22 29 37
2.769 3.070 -47.940 20 27 35
2.725 3.029 -47.940 22 29 37
2.680 2.990 -47.940 17 24 32
2.634 2.951 -47.940 14 21 29
2.587 2.913 -47.940 13 20 28
2.539 2.877 -47.940 12 19 27
2.490 2.841 -47.940 13 20 28
2.440 2.807 -47.940 14 19 25
2.390 2.775 -47.940 16 21 27
2.338 2.743 -47.940 17 22 28
2.286 2.713 -47.940 19 24 30
2.234 2.684 -47.940 22 27 33
2.180 2.656 -47.940 24 29 35
2.126 2.629 -47.940 24 29 35
2.071 2.604 -47.940 29 34 40
2.016 2.581 -47.940 35 40 46
1.960 2.558 -47.940 38 43 49
1.904 2.537 -47.940 39 44 50
1.847 2.518 -47.940 44 49 55
1.789 2.500 -47.940 44 51 57
1.732 2.483 -47.940 46 53 59
1.673 2.467 -47.940 53 60 66
1.615 2.454 -47.940 55 62 68
1.556 2.441 -47.940 60 65 71
1.497 2.430 -47.940 62 67 73
1.437 2.421 -47.940 65 70 76
1.378 2.412 -47.940 61 66 72
1.318 2.406 -47.940 58 62 71
1.258 2.401 -47.940 62 66 75
1.198 2.397 -47.940 60 64 73
1.137 2.395 -47.940 61 65 74
1.077 2.394 -47.940 61 66 72
1.017 2.395 -47.940 61 66 72
0.957 2.397 -47.940 61 66 72
0.897 2.401 -47.940 60 65 71
0.837 2.406 -47.940 61 66 72
0.777 2.412 -47.940 63 68 74
0.717 2.421 -47.940 61 66 72
0.658 2.430 -47.940 60 65 71
0.599 2.441 -47.940 61 66 72
0.540 2.454 -47.940 61 66 72
0.481 2.467 -47.940 60 65 71
0.423 2.483 -47.940 60 65 71
0.365 2.500 -47.940 55 62 70
0.308 2.518 -47.940 56 63 71
0.251 2.537 -47.940 58 65 73
0.194 2.558 -47.940 58 65 73
0.138 2.581 -47.940 60 65 71
0.083 2.604 -47.940 60 65 71
0.028 2.629 -47.940 59 64 70
-0.026 2.656 -47.940 59 64 70
-0.079 2.684 -47.940 60 65 71
-0.132 2.713 -47.940 58 63 69
-0.184 2.743 -47.940 57 62 68
-0.235 2.775 -47.940 60 65 71
-0.286 2.807 -47.940 56 60 69
-0.335 2.841 -47.940 57 61 70
-0.384 2.877 -47.940 55 59 68
-0.432 2.913 -47.940 45 49 58
-0.479 2.951 -47.940 22 27 33
-0.525 2.990 -47.925 16 21 27
-0.569 3.031 -47.901 12 19 25
-0.612 3.073 -47.876 21 30 35
-0.655 3.116 -47.850 39 43 52
-0.696 3.160 -47.823 38 42 51
-0.735 3.205 -47.795 21 25 34
-0.774 3.250 -47.768 10 14 23
-0.812 3.297 -47.745 10 15 21
-0.849 3.344 -47.724 10 15 21
-0.884 3.393 -47.704 13 18 24
-0.918 3.442 -47.686 13 18 24
-0.952 3.492 -47.668 19 24 30
-0.984 3.542 -47.649 27 32 38
-1.014 3.594 -47.629 41 46 52
-1.043 3.646 -47.608 40 45 51
-1.071 3.699 -47.587 25 30 36
-1.098 3.752 -47.570 26 31 37
-1.123 3.806 -47.553 29 34 40
-1.148 3.861 -47.545 29 34 40
-1.171 3.916 -47.540 26 33 41
-1.193 3.972 -47.536 27 34 42
-1.214 4.028 -47.530 29 36 44
-1.233 4.084 -47.522 33 40 48
-1.251 4.141 -47.517 31 38 44
-1.267 4.199 -47.514 42 49 55
-1.283 4.256 -47.518 38 45 51
-1.297 4.314 -47.525 30 37 43
-1.310 4.373 -47.538 28 35 43
-1.322 4.431 -47.557 28 35 43
-1.332 4.490 -47.580 26 33 41
-1.341 4.549 -47.606 25 32 40
-1.349 4.608 -47.631 21 28 36
-1.356 4.668 -47.656 25 32 40
-1.361 4.728 -47.684 48 55 63
-1.364 4.787 -47.714 54 61 69
-1.366 4.847 -47.735 54 61 69
-1.366 4.907 -47.755 55 62 70
-1.365 4.967 -47.773 55 62 70
-1.362 5.027 -47.788 54 61 69
-1.358 5.087 -47.802 55 62 70
-1.352 5.147 -47.812 55 62 70
-1.344 5.206 -47.819 56 63 71
-1.334 5.266 -47.824 57 64 72
-1.324 5.325 -47.826 55 62 70
-1.311 5.384 -47.829 53 60 68
-1.298 5.442 -47.831 54 61 69
-1.282 5.500 -47.829 54 61 69
-1.265 5.558 -47.825 53 60 68
-1.247 5.615 -47.818 53 60 68
-1.227 5.672 -47.810 52 59 67
-1.206 5.728 -47.803 54 61 69
-1.183 5.783 -47.792 53 60 68
-1.159 5.838 -47.780 54 61 69
-1.133 5.893 -47.767 52 59 67
-1.106 5.946 -47.757 53 60 68
-1.078 5.999 -47.747 57 61 70
-1.049 6.052 -47.732 55 62 70
-1.018 6.103 -47.714 53 60 68
-0.985 6.153 -47.695 52 61 68
-0.952 6.203 -47.677 52 59 69
-0.917 6.252 -47.656 52 59 69
-0.881 6.300 -47.632 54 61 71
-0.844 6.347 -47.605 54 61 71
-0.806 6.392 -47.576 53 60 70
-0.766 6.437 -47.549 54 61 71
-0.725 6.481 -47.522 54 61 71
-0.684 6.524 -47.491 53 60 70
-0.641 6.565 -47.455 55 62 72
-0.597 6.606 -47.419 55 62 72
-0.552 6.645 -47.387 54 61 71
-0.507 6.683 -47.357 54 61 71
-0.460 6.721 -47.332 55 62 72
-0.413 6.757 -47.305 54 61 71
-0.365 6.792 -47.281 54 61 71
-0.316 6.826 -47.259 56 63 73
-0.267 6.859 -47.238 56 63 73
-0.216 6.890 -47.222 57 64 74
-0.166 6.921 -47.204 56 63 73
-0.114 6.950 -47.185 57 64 74
-0.061 6.977 -47.165 56 63 73
-0.008 7.004 -47.145 56 63 73
0.045 7.029 -47.131 57 64 74
0.099 7.053 -47.115 57 64 74
0.154 7.076 -47.095 57 64 72
0.210 7.097 -47.073 57 64 70
0.265 7.116 -47.055 56 63 69
0.321 7.135 -47.039 57 64 70
0.378 7.152 -47.023 57 64 70
0.435 7.168 -47.008 59 66 74
0.492 7.182 -46.993 58 65 75
0.550 7.195 -46.983 58 64 76
0.608 7.207 -46.967 58 67 76
0.666 7.217 -46.948 58 67 76
0.724 7.225 -46.928 57 66 75
0.783 7.231 -46.895 57 66 75
0.842 7.236 -46.855 58 65 73
0.901 7.239 -46.825 58 65 71
0.960 7.242 -46.804 57 64 70
1.018 7.242 -46.751 57 64 70
1.077 6.483 -47.973 23 32 31
1.117 6.483 -47.973 26 34 36
1.157 6.481 -47.973 28 36 39
1.198 6.479 -47.973 35 42 48
1.238 6.475 -47.973 35 43 46
1.277 6.471 -47.973 37 47 49
1.317 6.466 -47.973 38 49 51
1.357 6.459 -47.973 37 48 50
1.396 6.452 -47.973 35 50 53
1.436 6.444 -47.973 36 51 54
1.475 6.434 -47.973 37 51 54
1.514 6.424 -47.973 39 50 54
1.552 6.413 -47.973 39 50 54
1.590 6.401 -47.973 42 53 55
1.628 6.388 -47.973 43 54 56
1.666 6.374 -47.973 44 55 57
1.703 6.359 -47.973 47 54 60
1.740 6.343 -47.973 50 55 61
1.777 6.326 -47.973 48 53 59
1.813 6.309 -47.973 51 56 62
1.848 6.290 -47.973 50 57 63
1.884 6.271 -47.973 50 57 63
1.918 6.251 -47.973 48 55 61
1.952 6.229 -47.973 52 59 65
1.986 6.208 -47.973 52 57 63
2.019 6.185 -47.973 53 58 64
