ply
format ascii 1.0
element vertex 1671
property float x
property float y
property float z
property uchar red
property uchar green
property uchar blue
end_header
-8.138 15.479 -41.489 3 4 9
-8.067 15.756 -41.469 3 4 9
-7.990 16.032 -41.452 3 4 9
-7.907 16.305 -41.439 3 4 9
-7.817 16.576 -41.427 3 4 9
-7.723 16.846 -41.423 3 4 9
-7.623 17.113 -41.420 3 4 9
-7.517 17.378 -41.420 3 4 9
-7.405 17.641 -41.420 2 3 8
-7.286 17.901 -41.422 3 4 9
-7.161 18.158 -41.423 3 4 9
-7.030 18.411 -41.425 3 4 9
-6.894 18.662 -41.431 3 4 9
-6.752 18.910 -41.439 2 3 8
-6.604 19.155 -41.449 3 4 9
-6.451 19.396 -41.461 3 4 9
-6.292 19.633 -41.471 3 4 9
-6.126 19.866 -41.477 3 4 9
-5.953 20.094 -41.481 3 4 9
-5.775 20.318 -41.482 3 4 9
-5.591 20.537 -41.484 3 4 9
-5.402 20.752 -41.488 3 4 9
-5.209 20.962 -41.492 3 4 9
-5.009 21.167 -41.494 3 4 9
-4.805 21.367 -41.496 3 3 11
-4.595 21.562 -41.497 3 3 11
-4.382 21.753 -41.503 3 3 11
-4.164 21.938 -41.510 3 4 9
-3.942 22.118 -41.513 3 4 9
-3.715 22.292 -41.517 4 5 10
-3.483 22.461 -41.522 4 5 10
-3.249 22.625 -41.533 5 6 11
-3.011 22.784 -41.547 5 6 11
-2.770 22.938 -41.564 6 7 12
-2.524 23.086 -41.579 6 7 12
-2.275 23.229 -41.599 6 7 12
-2.023 23.365 -41.617 8 9 14
-1.768 23.497 -41.642 11 12 17
-1.509 23.622 -41.661 11 12 17
-1.247 23.737 -41.672 7 10 15
-0.980 23.845 -41.676 7 10 15
-0.711 23.945 -41.676 9 12 17
-0.440 24.039 -41.680 10 13 18
-0.167 24.129 -41.691 8 11 18
0.109 24.211 -41.699 10 10 18
0.386 24.288 -41.712 13 13 21
0.665 24.358 -41.725 13 13 21
0.945 24.420 -41.734 13 13 21
1.228 24.473 -41.738 13 13 21
1.512 24.516 -41.726 13 13 21
1.798 24.552 -41.717 20 20 28
2.084 24.582 -41.710 20 25 31
2.371 24.595 -41.666 25 30 36
2.657 24.613 -41.669 33 38 44
2.944 24.637 -41.718 33 38 44
3.232 25.075 -46.502 19 26 34
3.530 25.072 -46.502 20 27 35
3.828 25.061 -46.502 23 30 38
4.125 25.042 -46.502 22 29 37
4.422 25.017 -46.502 20 24 33
4.719 24.984 -46.502 21 25 34
5.014 24.944 -46.502 23 27 36
5.309 24.896 -46.502 23 27 36
5.602 24.842 -46.502 24 29 35
5.893 24.780 -46.502 23 28 34
6.184 24.711 -46.502 24 29 35
6.472 24.635 -46.502 23 28 34
6.758 24.552 -46.502 24 28 37
7.042 24.462 -46.502 21 25 34
7.324 24.365 -46.502 19 23 32
7.604 24.261 -46.502 20 24 33
7.881 24.150 -46.502 19 23 32
8.155 24.033 -46.502 20 24 33
8.426 23.909 -46.502 18 22 31
8.694 23.778 -46.502 17 21 30
8.959 23.641 -46.502 17 21 30
9.220 23.497 -46.502 15 19 28
9.477 23.347 -46.502 14 18 27
9.731 23.190 -46.502 15 19 28
9.981 23.028 -46.502 14 18 27
10.227 22.859 -46.502 13 17 26
10.469 22.684 -46.502 12 16 25
10.706 22.504 -46.502 15 19 28
10.939 22.318 -46.502 9 16 24
11.167 22.126 -46.502 11 18 26
11.390 21.928 -46.502 12 19 27
11.609 21.725 -46.502 11 18 26
11.822 21.517 -46.502 17 21 30
12.030 21.303 -46.502 15 19 28
12.233 21.085 -46.502 14 18 27
12.431 20.862 -46.502 16 20 29
12.623 20.633 -46.502 25 29 40
12.809 20.401 -46.502 26 30 39
12.990 20.163 -46.502 30 35 41
13.164 19.922 -46.502 30 35 39
13.333 19.676 -46.502 29 36 44
13.496 19.426 -46.502 28 35 43
13.652 19.172 -46.502 29 36 44
13.802 18.914 -46.502 30 37 45
13.946 18.653 -46.502 28 32 41
14.083 18.389 -46.502 27 31 40
14.214 18.121 -46.502 29 33 42
14.338 17.849 -46.502 25 29 38
14.456 17.575 -46.502 20 27 35
14.566 17.299 -46.502 17 24 32
14.670 17.019 -46.502 14 21 29
14.767 16.737 -46.502 14 21 29
14.857 16.453 -46.502 14 21 27
14.940 16.167 -46.502 15 22 28
15.016 15.878 -46.502 21 28 34
15.085 15.588 -46.502 23 30 36
15.147 15.296 -46.502 31 36 42
15.202 15.003 -46.502 42 47 53
15.249 14.709 -46.502 24 29 35
15.289 14.413 -46.502 20 25 31
15.322 14.117 -46.502 19 23 32
15.348 13.820 -46.502 18 22 31
15.366 13.522 -46.502 19 23 32
15.377 13.224 -46.502 15 19 28
15.381 12.926 -46.502 21 25 34
15.377 12.628 -46.502 18 22 31
15.366 12.330 -46.502 16 20 29
15.348 12.032 -46.502 15 19 28
15.322 11.735 -46.502 12 19 27
15.289 11.439 -46.502 18 25 33
15.249 11.144 -46.502 21 28 36
15.202 10.849 -46.502 21 28 36
15.147 10.556 -46.502 21 28 36
15.085 10.264 -46.502 22 29 37
15.016 9.974 -46.502 21 28 36
14.940 9.686 -46.502 23 30 38
14.857 9.400 -46.502 15 19 28
14.767 9.115 -46.502 14 17 26
14.670 8.833 -46.502 14 17 26
14.560 8.556 -46.474 13 16 25
14.434 8.286 -46.408 16 19 28
14.302 8.019 -46.345 15 18 27
14.165 7.755 -46.283 13 16 25
14.020 7.496 -46.218 13 16 25
13.869 7.240 -46.155 12 15 24
13.714 6.988 -46.096 10 13 22
13.552 6.740 -46.035 10 13 22
13.384 6.497 -45.974 10 13 22
13.210 6.259 -45.909 10 13 22
13.030 6.025 -45.845 12 15 24
12.845 5.796 -45.782 7 10 19
12.655 5.572 -45.722 7 10 19
12.460 5.352 -45.662 3 8 14
12.260 5.138 -45.601 2 7 13
12.055 4.929 -45.538 2 7 13
11.844 4.726 -45.476 1 6 12
11.630 4.528 -45.416 2 5 14
11.411 4.335 -45.358 2 5 14
11.188 4.147 -45.301 3 6 15
10.961 3.965 -45.244 0 3 12
10.730 3.790 -45.186 1 4 13
10.495 3.619 -45.131 0 3 12
10.256 3.455 -45.073 1 4 13
10.012 3.298 -45.013 1 4 13
9.766 3.147 -44.952 1 4 11
9.516 3.003 -44.893 1 4 11
9.263 2.864 -44.835 1 4 11
9.007 2.731 -44.778 1 4 11
8.748 2.605 -44.719 4 5 10
8.486 2.487 -44.659 4 5 10
8.222 2.374 -44.599 3 3 11
7.956 2.268 -44.543 3 3 13
7.688 2.167 -44.491 1 4 11
7.418 2.074 -44.438 1 4 11
7.146 1.987 -44.385 2 5 12
6.872 1.907 -44.329 2 5 12
6.596 1.834 -44.277 2 2 10
6.320 1.766 -44.228 2 2 10
6.042 1.705 -44.180 2 2 10
5.763 1.652 -44.131 3 3 11
5.483 1.605 -44.082 3 3 11
5.203 1.566 -44.031 3 3 11
4.922 1.532 -43.985 3 3 11
4.640 1.506 -43.936 3 3 11
4.358 1.488 -43.884 3 3 11
4.076 1.477 -43.833 3 3 11
3.794 1.472 -43.785 3 3 11
3.513 1.472 -43.743 3 3 11
3.232 1.478 -43.705 3 4 9
2.951 1.490 -43.669 3 3 11
2.671 1.509 -43.634 3 3 13
2.391 1.536 -43.596 4 4 14
2.113 1.570 -43.557 3 4 9
1.836 1.609 -43.522 3 4 9
1.560 1.655 -43.488 3 3 11
1.285 1.709 -43.450 3 3 13
1.013 1.770 -43.409 4 4 12
0.742 1.839 -43.367 3 3 11
0.473 1.913 -43.327 3 3 11
0.206 1.993 -43.290 3 3 11
-0.059 2.079 -43.254 3 3 11
-0.321 2.172 -43.216 3 3 11
-0.581 2.271 -43.179 3 3 11
-0.838 2.375 -43.147 3 3 11
-1.093 2.486 -43.116 3 3 11
-1.345 2.602 -43.085 3 3 11
-1.593 2.725 -43.050 3 3 11
-1.838 2.854 -43.015 3 3 11
-2.080 2.989 -42.985 3 3 11
-2.319 3.128 -42.957 3 3 11
-2.554 3.273 -42.930 3 3 11
-2.785 3.425 -42.897 3 3 11
-3.012 3.583 -42.862 3 4 9
-3.234 3.746 -42.829 3 4 9
-3.453 3.913 -42.799 3 4 9
-3.668 4.086 -42.768 3 4 9
-3.877 4.265 -42.731 3 4 9
-4.080 4.450 -42.688 3 4 9
-4.278 4.640 -42.644 3 4 9
-4.472 4.835 -42.603 3 4 9
-4.661 5.033 -42.562 3 3 11
-4.845 5.236 -42.522 3 3 11
-5.023 5.444 -42.477 3 3 11
-5.196 5.656 -42.435 3 3 11
-5.365 5.871 -42.398 3 3 11
-5.529 6.089 -42.365 3 3 11
-5.688 6.311 -42.335 3 3 11
-5.841 6.536 -42.303 3 3 11
-5.989 6.765 -42.270 3 3 11
-6.131 6.997 -42.242 3 3 11
-6.268 7.233 -42.213 3 3 11
-6.398 7.471 -42.185 3 3 11
-6.523 7.712 -42.156 3 3 11
-6.642 7.956 -42.128 3 3 11
-6.756 8.203 -42.106 3 3 11
-6.865 8.451 -42.088 3 3 11
-6.968 8.701 -42.074 3 4 9
-7.066 8.954 -42.061 3 4 9
-7.157 9.209 -42.049 3 4 9
-7.242 9.466 -42.037 3 4 9
-7.321 9.725 -42.025 3 3 11
-7.394 9.986 -42.012 3 3 11
-7.459 10.248 -42.000 3 3 11
-7.517 10.513 -41.979 2 2 10
-7.568 10.778 -41.958 3 3 11
-7.612 11.045 -41.939 3 3 11
-7.650 11.312 -41.918 3 3 11
-7.682 11.580 -41.897 3 3 11
-7.705 11.849 -41.874 3 3 11
-7.722 12.118 -41.850 3 3 11
-7.734 12.388 -41.829 3 3 11
-7.738 12.657 -41.807 3 3 11
-7.736 12.926 -41.786 3 4 9
-7.728 13.195 -41.765 3 4 9
-7.712 13.464 -41.741 3 4 9
-7.690 13.732 -41.718 3 4 9
-7.661 13.999 -41.695 2 3 8
-7.625 14.265 -41.672 3 4 9
-7.583 14.530 -41.647 3 4 9
-7.534 14.794 -41.620 3 4 9
-7.479 15.057 -41.595 3 4 9
-7.418 15.318 -41.573 3 4 9
-7.351 15.577 -41.553 3 4 9
-7.278 15.835 -41.534 3 4 9
-7.200 16.091 -41.519 3 4 9
-7.116 16.344 -41.504 3 4 9
-7.027 16.597 -41.498 3 4 9
-6.933 16.847 -41.494 3 4 9
-6.834 17.096 -41.496 3 4 9
-6.729 17.342 -41.498 2 3 8
-6.619 17.585 -41.501 3 4 9
-6.502 17.826 -41.504 3 4 9
-6.379 18.063 -41.506 3 4 9
-6.251 18.298 -41.510 3 4 9
-6.118 18.530 -41.515 2 3 8
-5.979 18.758 -41.521 3 4 9
-5.834 18.984 -41.528 3 4 9
-5.684 19.205 -41.535 3 4 9
-5.529 19.423 -41.541 3 4 9
-5.368 19.637 -41.546 3 4 9
-5.201 19.847 -41.550 3 4 9
-5.030 20.052 -41.555 3 4 9
-4.854 20.254 -41.563 3 4 9
-4.673 20.452 -41.570 3 4 9
-4.487 20.645 -41.577 3 4 9
-4.295 20.832 -41.579 3 4 9
-4.099 21.015 -41.580 3 4 9
-3.900 21.193 -41.586 3 4 9
-3.695 21.367 -41.591 3 4 9
-3.487 21.535 -41.596 3 4 9
-3.275 21.699 -41.603 3 4 9
-3.058 21.857 -41.609 3 4 9
-2.839 22.011 -41.621 2 3 8
-2.616 22.160 -41.635 2 3 8
-2.390 22.305 -41.651 3 4 9
-2.160 22.444 -41.669 3 4 9
-1.927 22.578 -41.691 3 4 9
-1.691 22.707 -41.713 3 4 9
-1.453 22.830 -41.738 4 5 10
-1.210 22.947 -41.759 4 5 10
-0.965 23.058 -41.779 2 3 8
-0.717 23.162 -41.797 2 3 8
-0.466 23.260 -41.815 2 3 8
-0.213 23.352 -41.834 3 4 9
0.042 23.439 -41.858 2 2 10
0.300 23.520 -41.881 2 2 10
0.559 23.594 -41.906 3 3 11
0.821 23.663 -41.931 3 3 11
1.084 23.723 -41.949 5 5 13
1.349 23.776 -41.963 5 5 13
1.616 23.820 -41.967 4 4 12
1.883 23.857 -41.970 5 5 13
2.152 23.887 -41.970 5 8 15
2.422 23.902 -41.938 2 5 12
2.692 23.919 -41.937 8 11 18
2.961 23.932 -41.951 6 9 16
3.232 24.280 -46.694 10 17 23
3.510 24.277 -46.694 4 11 17
3.789 24.266 -46.694 8 15 21
4.067 24.249 -46.694 11 18 24
4.344 24.225 -46.694 15 19 28
4.621 24.195 -46.694 15 19 28
4.898 24.157 -46.694 16 20 29
5.173 24.113 -46.694 15 19 28
5.447 24.062 -46.694 16 21 27
5.719 24.004 -46.694 15 20 26
5.990 23.940 -46.694 13 18 24
6.260 23.869 -46.694 11 16 22
6.527 23.791 -46.694 8 12 21
6.793 23.707 -46.694 9 13 22
7.057 23.616 -46.694 10 14 23
7.318 23.519 -46.694 12 16 25
7.576 23.416 -46.694 14 18 27
7.833 23.306 -46.694 14 18 27
8.086 23.190 -46.694 15 19 28
8.336 23.068 -46.694 17 21 30
8.584 22.939 -46.694 16 20 29
8.828 22.805 -46.694 17 21 30
9.069 22.665 -46.694 21 25 34
9.306 22.519 -46.694 21 25 34
9.539 22.367 -46.694 16 20 29
9.769 22.209 -46.694 23 27 36
9.995 22.046 -46.694 16 20 29
10.217 21.877 -46.694 11 15 24
10.434 21.703 -46.694 13 20 28
10.648 21.523 -46.694 13 20 28
10.856 21.339 -46.694 16 23 31
11.060 21.149 -46.694 18 25 33
11.260 20.955 -46.694 25 29 38
11.455 20.755 -46.694 29 33 42
11.644 20.551 -46.694 32 36 45
11.829 20.342 -46.694 32 36 45
12.008 20.129 -46.694 32 36 47
12.182 19.911 -46.694 32 36 45
12.351 19.690 -46.694 37 42 48
12.514 19.464 -46.694 33 38 42
12.672 19.234 -46.694 32 36 45
12.824 19.000 -46.694 31 35 44
12.970 18.763 -46.694 28 32 41
13.110 18.522 -46.694 23 27 36
13.245 18.278 -46.694 19 22 31
13.373 18.031 -46.694 18 21 30
13.495 17.781 -46.694 18 21 30
13.611 17.527 -46.694 17 20 29
13.721 17.271 -46.694 15 19 28
13.825 17.012 -46.694 15 19 28
13.922 16.751 -46.694 15 19 28
14.012 16.488 -46.694 18 22 31
14.096 16.222 -46.694 15 20 26
14.174 15.954 -46.694 17 22 28
14.245 15.685 -46.694 26 31 37
14.309 15.414 -46.694 21 26 32
14.367 15.141 -46.694 24 27 34
14.418 14.867 -46.694 20 23 30
14.462 14.592 -46.694 18 21 28
14.500 14.316 -46.694 17 20 27
14.531 14.039 -46.694 17 20 27
14.555 13.761 -46.694 14 17 24
14.572 13.483 -46.694 11 14 21
14.582 13.205 -46.694 15 18 25
14.585 12.926 -46.694 13 16 23
14.582 12.648 -46.694 9 12 19
14.572 12.369 -46.694 9 12 19
14.555 12.091 -46.694 7 10 17
14.531 11.813 -46.694 9 12 19
14.500 11.536 -46.694 6 9 16
14.462 11.260 -46.694 7 10 17
14.418 10.985 -46.694 6 9 16
14.367 10.711 -46.694 5 8 15
14.309 10.439 -46.694 5 8 15
14.245 10.167 -46.694 4 7 14
14.174 9.898 -46.694 4 7 14
14.096 9.630 -46.694 4 4 12
14.012 9.365 -46.694 4 4 12
13.922 9.101 -46.694 3 3 11
13.825 8.840 -46.694 3 3 11
13.721 8.581 -46.694 3 3 11
13.595 8.332 -46.619 3 3 11
13.463 8.087 -46.543 3 3 11
13.325 7.846 -46.463 3 3 11
13.181 7.608 -46.384 4 3 11
13.032 7.374 -46.310 4 3 11
12.878 7.144 -46.236 4 3 11
12.719 6.918 -46.161 4 3 11
12.554 6.697 -46.085 3 3 11
12.384 6.480 -46.010 3 3 11
12.209 6.268 -45.936 3 3 11
12.030 6.060 -45.867 3 3 11
11.847 5.856 -45.798 1 4 11
11.659 5.657 -45.731 1 4 11
11.466 5.463 -45.662 1 4 11
11.269 5.274 -45.596 1 4 11
11.068 5.089 -45.531 3 3 13
10.864 4.910 -45.470 3 3 13
10.655 4.736 -45.409 3 3 13
10.442 4.567 -45.347 3 3 13
10.226 4.403 -45.286 3 3 11
10.006 4.245 -45.226 3 3 11
9.783 4.093 -45.165 3 3 11
9.556 3.947 -45.103 3 3 11
9.325 3.807 -45.040 1 4 11
9.092 3.672 -44.978 1 4 9
8.855 3.543 -44.916 1 4 9
8.616 3.421 -44.853 1 4 9
8.374 3.305 -44.789 3 4 8
8.130 3.195 -44.723 3 4 9
7.883 3.091 -44.660 3 3 11
7.635 2.993 -44.600 3 3 13
7.385 2.900 -44.543 1 4 11
7.133 2.813 -44.488 1 4 9
6.879 2.733 -44.432 1 4 9
6.623 2.659 -44.374 1 4 9
6.367 2.592 -44.317 3 4 9
6.109 2.530 -44.264 3 4 9
5.850 2.474 -44.214 3 4 9
5.590 2.424 -44.164 3 4 9
5.329 2.380 -44.115 3 3 11
5.068 2.343 -44.068 3 3 11
4.806 2.311 -44.026 3 3 11
4.544 2.285 -43.983 3 3 11
4.281 2.266 -43.938 3 3 11
4.019 2.255 -43.892 3 3 11
3.756 2.249 -43.846 3 3 11
3.494 2.249 -43.804 3 3 11
3.232 2.255 -43.764 3 4 9
2.970 2.268 -43.726 3 3 11
2.709 2.286 -43.689 3 3 13
2.449 2.311 -43.650 3 3 13
2.189 2.344 -43.605 3 4 9
1.931 2.382 -43.563 3 4 9
1.674 2.426 -43.524 3 3 11
1.418 2.477 -43.484 3 3 13
1.165 2.535 -43.440 3 3 11
0.912 2.599 -43.395 3 3 11
0.662 2.668 -43.354 3 3 11
0.413 2.743 -43.315 3 3 11
0.167 2.823 -43.278 3 3 11
-0.077 2.910 -43.240 3 3 11
-0.319 3.002 -43.203 3 3 11
-0.559 3.100 -43.170 3 3 11
-0.796 3.203 -43.139 3 3 11
-1.031 3.311 -43.109 3 3 11
-1.262 3.425 -43.078 3 3 11
-1.491 3.544 -43.046 3 3 11
-1.716 3.669 -43.016 3 3 11
-1.939 3.799 -42.988 3 3 11
-2.158 3.934 -42.960 3 3 11
-2.373 4.076 -42.927 3 3 11
-2.584 4.223 -42.892 3 4 9
-2.791 4.375 -42.857 3 4 9
-2.994 4.531 -42.825 3 4 9
-3.194 4.693 -42.790 3 4 9
-3.388 4.860 -42.751 2 3 8
-3.577 5.033 -42.708 2 3 8
-3.762 5.210 -42.665 3 4 9
-3.943 5.390 -42.626 3 4 9
-4.120 5.575 -42.588 3 3 11
-4.292 5.764 -42.550 3 3 11
-4.457 5.957 -42.506 2 2 10
-4.619 6.155 -42.463 2 2 10
-4.776 6.354 -42.429 2 2 10
-4.930 6.557 -42.400 2 2 10
-5.079 6.762 -42.376 2 2 10
-5.223 6.972 -42.347 2 2 10
-5.360 7.185 -42.316 2 2 10
-5.492 7.402 -42.285 2 2 10
-5.619 7.621 -42.256 2 2 10
-5.741 7.843 -42.227 2 2 10
-5.857 8.068 -42.199 4 4 12
-5.968 8.296 -42.170 4 4 12
-6.073 8.525 -42.143 3 3 11
-6.174 8.757 -42.122 3 3 11
-6.270 8.991 -42.105 2 2 10
-6.361 9.226 -42.093 2 2 10
-6.447 9.463 -42.085 4 4 12
-6.528 9.702 -42.081 3 3 11
-6.604 9.943 -42.079 2 2 10
-6.672 10.185 -42.072 2 2 10
-6.735 10.430 -42.064 3 3 11
-6.789 10.676 -42.046 3 3 11
-6.836 10.924 -42.025 3 3 11
-6.878 11.172 -42.005 3 3 11
-6.913 11.421 -41.984 2 2 10
-6.942 11.671 -41.965 2 2 10
-6.965 11.922 -41.943 2 2 10
-6.982 12.173 -41.920 2 2 10
-6.992 12.424 -41.899 3 3 11
-6.996 12.675 -41.879 4 4 12
-6.995 12.926 -41.859 3 4 9
-6.987 13.177 -41.837 3 4 9
-6.972 13.427 -41.813 2 3 8
-6.950 13.677 -41.785 2 3 8
-6.922 13.926 -41.757 1 2 7
-6.887 14.174 -41.727 3 4 9
-6.847 14.421 -41.697 2 3 8
-6.800 14.667 -41.664 2 3 8
-6.747 14.911 -41.634 2 3 8
-6.690 15.154 -41.611 2 3 8
-6.628 15.396 -41.591 2 3 8
-6.561 15.636 -41.577 2 3 8
-6.490 15.875 -41.567 2 3 8
-6.412 16.112 -41.556 2 3 8
-6.329 16.347 -41.550 3 4 9
-6.241 16.580 -41.545 3 4 9
-6.149 16.812 -41.545 2 3 8
-6.050 17.041 -41.544 2 3 8
-5.946 17.267 -41.543 2 3 8
-5.837 17.491 -41.543 2 3 8
-5.723 17.712 -41.544 2 3 8
-5.603 17.931 -41.545 2 3 8
-5.478 18.146 -41.547 3 4 9
-5.348 18.359 -41.551 3 4 9
-5.213 18.568 -41.556 2 3 8
-5.073 18.775 -41.563 2 3 8
-4.928 18.978 -41.570 3 4 9
-4.778 19.177 -41.575 3 4 9
-4.624 19.373 -41.581 3 4 9
-4.464 19.565 -41.589 3 4 9
-4.301 19.753 -41.599 3 4 9
-4.133 19.938 -41.609 3 4 9
-3.960 20.118 -41.618 3 4 9
-3.782 20.293 -41.623 3 4 9
-3.600 20.463 -41.626 3 4 9
-3.414 20.630 -41.633 3 4 9
-3.224 20.792 -41.640 3 4 9
-3.029 20.949 -41.644 3 4 9
-2.831 21.101 -41.649 3 4 9
-2.630 21.249 -41.656 3 4 9
-2.425 21.392 -41.665 3 4 9
-2.217 21.531 -41.680 3 4 9
-2.006 21.665 -41.696 3 4 9
-1.792 21.794 -41.713 3 4 9
-1.575 21.919 -41.731 3 4 9
-1.355 22.038 -41.751 3 4 9
-1.132 22.153 -41.775 3 4 9
-0.907 22.262 -41.796 3 4 9
-0.678 22.365 -41.816 3 4 9
-0.447 22.463 -41.836 3 4 9
-0.213 22.554 -41.857 3 4 9
0.022 22.641 -41.881 3 4 9
0.260 22.723 -41.905 3 3 11
0.500 22.798 -41.929 3 3 11
0.741 22.868 -41.953 3 3 11
0.985 22.932 -41.981 3 3 11
1.230 22.989 -42.004 4 4 12
1.477 23.040 -42.023 3 3 11
1.725 23.082 -42.034 3 3 11
1.974 23.118 -42.043 3 3 11
2.225 23.149 -42.055 3 3 11
2.476 23.165 -42.033 2 2 10
2.728 23.183 -42.043 3 3 11
2.979 23.199 -42.073 3 3 11
3.232 23.482 -46.873 7 15 18
3.491 23.479 -46.873 8 16 19
3.749 23.469 -46.873 7 15 18
4.008 23.453 -46.873 6 14 17
4.266 23.431 -46.873 11 15 24
4.524 23.402 -46.873 11 15 24
4.780 23.368 -46.873 10 14 23
5.036 23.326 -46.873 9 13 22
5.291 23.279 -46.873 12 17 23
5.544 23.225 -46.873 13 18 24
5.796 23.165 -46.873 12 17 23
6.047 23.099 -46.873 15 20 26
6.296 23.027 -46.873 14 18 27
6.543 22.949 -46.873 10 14 23
6.788 22.865 -46.873 9 13 22
7.030 22.774 -46.873 10 14 23
7.271 22.678 -46.873 9 13 22
7.509 22.576 -46.873 9 13 22
7.745 22.468 -46.873 10 14 23
7.977 22.355 -46.873 11 15 24
8.207 22.235 -46.873 13 17 26
8.434 22.110 -46.873 9 13 22
8.658 21.980 -46.873 10 14 23
8.879 21.844 -46.873 11 15 24
9.096 21.703 -46.873 10 14 23
9.310 21.556 -46.873 10 14 23
9.520 21.405 -46.873 13 17 26
9.726 21.248 -46.873 18 22 31
9.928 21.086 -46.873 29 36 44
10.126 20.919 -46.873 29 36 44
10.320 20.747 -46.873 31 38 46
10.510 20.571 -46.873 30 37 45
10.695 20.390 -46.873 31 35 44
10.876 20.205 -46.873 30 34 43
11.053 20.015 -46.873 30 34 43
11.224 19.821 -46.873 30 34 43
11.391 19.623 -46.873 30 34 45
11.553 19.420 -46.873 30 34 43
11.710 19.214 -46.873 28 33 39
11.862 19.004 -46.873 29 34 38
12.008 18.791 -46.873 24 27 36
12.149 18.573 -46.873 18 21 30
12.285 18.353 -46.873 16 19 28
12.416 18.129 -46.873 15 18 27
12.541 17.902 -46.873 14 17 26
12.660 17.672 -46.873 14 17 26
12.774 17.439 -46.873 12 15 24
12.882 17.204 -46.873 11 14 23
12.984 16.966 -46.873 9 12 21
13.080 16.725 -46.873 9 12 21
13.170 16.482 -46.873 8 11 20
13.254 16.237 -46.873 9 12 21
13.333 15.990 -46.873 9 12 19
13.405 15.742 -46.873 6 9 16
13.471 15.491 -46.873 6 9 16
13.531 15.239 -46.873 8 11 18
13.584 14.985 -46.873 3 6 13
13.632 14.731 -46.873 3 6 13
13.673 14.475 -46.873 1 4 11
13.708 14.218 -46.873 3 6 13
13.736 13.961 -46.873 2 5 10
13.759 13.703 -46.873 1 4 9
13.774 13.444 -46.873 2 5 10
13.784 13.185 -46.873 2 5 10
13.787 12.926 -46.873 1 4 9
13.784 12.667 -46.873 3 6 11
13.774 12.408 -46.873 3 6 11
13.759 12.150 -46.873 2 5 10
13.736 11.892 -46.873 3 4 9
13.708 11.634 -46.873 4 5 10
13.673 11.377 -46.873 5 6 11
13.632 11.122 -46.873 3 4 9
13.584 10.867 -46.873 3 4 9
13.531 10.613 -46.873 3 4 9
13.471 10.361 -46.873 3 4 9
13.405 10.111 -46.873 3 4 9
13.333 9.862 -46.873 3 4 9
13.254 9.615 -46.873 3 4 9
13.170 9.370 -46.873 3 4 9
13.070 9.131 -46.827 3 4 9
12.958 8.897 -46.746 3 4 9
12.840 8.667 -46.664 3 4 9
12.717 8.440 -46.583 3 4 9
12.588 8.216 -46.501 3 4 9
12.455 7.996 -46.421 3 4 9
12.316 7.780 -46.344 3 4 9
12.173 7.567 -46.268 3 4 9
12.026 7.357 -46.195 3 4 9
11.873 7.152 -46.123 3 4 9
11.717 6.950 -46.052 3 4 9
11.555 6.753 -45.982 3 4 9
11.389 6.560 -45.912 3 4 9
11.219 6.371 -45.845 1 4 11
11.046 6.186 -45.780 1 4 11
10.867 6.006 -45.714 1 4 11
10.685 5.830 -45.647 1 4 11
10.498 5.659 -45.583 3 3 13
10.309 5.493 -45.522 3 3 13
10.116 5.331 -45.463 3 3 13
9.919 5.174 -45.402 3 3 13
9.718 5.022 -45.341 3 3 11
9.514 4.876 -45.281 3 4 9
9.307 4.735 -45.220 3 4 9
9.096 4.599 -45.160 3 4 9
8.883 4.468 -45.098 1 4 9
8.667 4.343 -45.038 1 5 8
8.448 4.224 -44.977 1 5 8
8.226 4.110 -44.916 1 5 8
8.002 4.001 -44.855 3 4 8
7.775 3.899 -44.793 3 4 9
7.547 3.802 -44.732 3 3 11
7.316 3.711 -44.671 3 3 13
7.084 3.626 -44.611 1 4 9
6.850 3.546 -44.551 1 5 8
6.614 3.472 -44.491 1 5 8
6.377 3.405 -44.429 1 5 8
6.139 3.342 -44.372 3 4 8
5.900 3.285 -44.319 3 4 8
5.660 3.232 -44.269 3 4 8
5.419 3.186 -44.221 3 4 8
5.177 3.145 -44.175 3 3 11
4.935 3.109 -44.133 3 3 11
4.692 3.079 -44.093 3 3 11
4.449 3.055 -44.053 3 3 11
4.206 3.037 -44.009 3 3 11
3.962 3.026 -43.963 3 3 11
3.718 3.020 -43.920 3 3 11
3.475 3.020 -43.878 3 3 11
3.232 3.026 -43.837 3 4 9
2.989 3.038 -43.795 3 3 11
2.747 3.056 -43.754 3 3 13
2.505 3.080 -43.713 3 3 13
2.265 3.111 -43.665 3 4 9
2.025 3.148 -43.619 3 4 9
1.787 3.189 -43.577 3 3 11
1.550 3.237 -43.533 3 3 13
1.315 3.291 -43.488 3 3 11
1.081 3.350 -43.443 3 3 11
0.849 3.414 -43.401 3 3 11
0.619 3.484 -43.362 3 3 11
0.390 3.559 -43.324 3 3 11
0.164 3.639 -43.285 3 3 11
-0.061 3.725 -43.248 3 3 11
-0.283 3.815 -43.213 3 3 11
-0.503 3.911 -43.183 3 3 11
-0.721 4.010 -43.155 3 3 11
-0.935 4.116 -43.125 3 3 11
-1.148 4.226 -43.097 3 3 11
-1.357 4.342 -43.069 3 3 11
-1.564 4.462 -43.044 3 3 11
-1.767 4.587 -43.018 3 3 11
-1.967 4.717 -42.987 3 3 11
-2.163 4.853 -42.955 3 4 9
-2.355 4.994 -42.923 3 4 9
-2.544 5.138 -42.893 3 4 9
-2.730 5.288 -42.862 3 4 9
-2.911 5.442 -42.828 3 4 9
-3.088 5.601 -42.794 3 4 9
-3.261 5.763 -42.761 4 5 10
-3.430 5.930 -42.729 4 5 10
-3.595 6.100 -42.699 3 3 11
-3.755 6.274 -42.667 3 3 11
-3.911 6.453 -42.631 3 3 11
-4.062 6.635 -42.598 3 3 11
-4.209 6.820 -42.569 3 3 11
-4.353 7.007 -42.547 3 3 11
-4.493 7.197 -42.529 3 3 11
-4.628 7.391 -42.507 3 3 11
-4.757 7.588 -42.485 3 3 11
-4.881 7.789 -42.459 3 3 11
-5.000 7.992 -42.434 3 3 11
-5.114 8.199 -42.408 3 3 11
-5.222 8.408 -42.383 3 3 11
-5.326 8.619 -42.359 3 3 11
-5.424 8.832 -42.333 4 4 12
-5.517 9.048 -42.310 4 4 12
-5.606 9.266 -42.288 3 3 13
-5.689 9.485 -42.269 3 3 13
-5.768 9.706 -42.256 4 4 14
-5.842 9.929 -42.245 4 4 14
-5.911 10.153 -42.237 3 3 11
-5.974 10.379 -42.226 3 3 11
-6.031 10.606 -42.212 4 4 12
-6.081 10.835 -42.193 4 4 12
-6.125 11.065 -42.171 3 3 11
-6.163 11.296 -42.149 3 3 11
-6.197 11.528 -42.132 2 2 10
-6.224 11.760 -42.114 2 2 10
-6.246 11.993 -42.093 2 2 10
-6.261 12.226 -42.071 2 2 10
-6.270 12.459 -42.047 2 2 10
-6.274 12.693 -42.024 3 3 11
-6.272 12.926 -42.001 3 4 9
-6.264 13.159 -41.977 3 4 9
-6.250 13.392 -41.953 2 3 8
-6.229 13.624 -41.924 2 3 8
-6.203 13.855 -41.894 4 5 10
-6.170 14.086 -41.861 3 4 9
-6.132 14.315 -41.829 3 4 9
-6.088 14.543 -41.797 3 4 9
-6.040 14.770 -41.768 3 4 9
-5.986 14.996 -41.742 3 4 9
-5.928 15.221 -41.719 3 4 9
-5.865 15.444 -41.700 3 4 9
-5.798 15.665 -41.687 3 4 9
-5.726 15.885 -41.677 3 4 9
-5.648 16.103 -41.667 3 4 9
-5.566 16.320 -41.658 3 4 9
-5.478 16.534 -41.649 3 4 9
-5.385 16.746 -41.639 3 4 9
-5.287 16.955 -41.632 3 4 9
-5.185 17.163 -41.628 3 4 9
-5.078 17.368 -41.624 3 4 9
-4.966 17.570 -41.620 3 4 9
-4.849 17.769 -41.618 3 4 9
-4.728 17.967 -41.622 3 4 9
-4.602 18.161 -41.623 3 4 9
-4.472 18.352 -41.625 3 4 9
-4.337 18.539 -41.628 3 4 9
-4.197 18.724 -41.631 3 4 9
-4.054 18.905 -41.637 3 4 9
-3.906 19.083 -41.645 3 4 9
-3.754 19.258 -41.654 3 4 9
-3.598 19.429 -41.664 3 4 9
-3.438 19.596 -41.672 3 4 9
-3.273 19.758 -41.677 3 4 9
-3.104 19.916 -41.681 3 4 9
-2.931 20.071 -41.686 3 4 9
-2.755 20.221 -41.693 3 4 9
-2.575 20.366 -41.696 3 4 9
-2.391 20.507 -41.699 3 4 9
-2.204 20.644 -41.706 3 4 9
-2.014 20.776 -41.713 3 4 9
-1.821 20.905 -41.726 3 4 9
-1.625 21.029 -41.740 3 4 9
-1.426 21.148 -41.753 3 4 9
-1.224 21.263 -41.767 3 4 9
-1.020 21.373 -41.783 3 4 9
-0.813 21.479 -41.804 3 4 9
-0.604 21.579 -41.823 3 4 9
-0.392 21.674 -41.841 3 4 9
-0.178 21.764 -41.860 3 4 9
0.039 21.849 -41.880 3 4 9
0.257 21.930 -41.903 3 4 9
0.478 22.005 -41.925 3 3 11
0.700 22.075 -41.950 3 3 11
0.924 22.139 -41.975 3 3 11
1.149 22.200 -42.006 3 3 11
1.376 22.254 -42.032 3 3 11
1.605 22.301 -42.054 3 3 11
1.835 22.341 -42.070 3 3 11
2.066 22.376 -42.086 3 3 11
2.298 22.405 -42.100 3 3 11
2.531 22.421 -42.080 2 2 10
2.764 22.436 -42.084 3 3 11
2.998 22.453 -42.124 3 3 11
3.232 22.681 -47.039 34 42 44
3.471 22.678 -47.039 31 39 42
3.710 22.669 -47.039 29 36 42
3.949 22.654 -47.039 30 37 43
4.188 22.634 -47.039 27 35 38
4.426 22.607 -47.039 32 40 43
4.663 22.575 -47.039 28 36 39
4.899 22.537 -47.039 28 36 39
5.135 22.493 -47.039 30 37 43
5.369 22.444 -47.039 28 35 41
5.602 22.388 -47.039 25 32 38
5.833 22.327 -47.039 30 37 43
6.063 22.261 -47.039 30 37 43
6.291 22.188 -47.039 30 37 43
6.518 22.111 -47.039 29 36 44
6.742 22.027 -47.039 28 35 45
6.964 21.938 -47.039 27 34 42
7.184 21.844 -47.039 25 32 38
7.402 21.744 -47.039 19 26 32
7.617 21.639 -47.039 18 25 31
7.830 21.529 -47.039 14 19 25
8.040 21.413 -47.039 12 17 23
8.246 21.293 -47.039 14 19 25
8.450 21.167 -47.039 17 22 28
8.651 21.037 -47.039 27 32 38
8.848 20.901 -47.039 25 30 36
9.042 20.761 -47.039 24 29 35
9.233 20.616 -47.039 24 29 35
9.420 20.467 -47.039 26 30 39
9.603 20.312 -47.039 23 27 36
9.782 20.154 -47.039 23 27 36
9.958 19.991 -47.039 23 27 36
10.129 19.824 -47.039 23 26 35
10.296 19.652 -47.039 22 22 32
10.459 19.477 -47.039 22 22 32
10.618 19.298 -47.039 19 19 29
10.772 19.114 -47.039 17 17 27
10.921 18.927 -47.039 15 15 23
11.066 18.737 -47.039 12 12 20
11.207 18.543 -47.039 8 8 16
11.342 18.346 -47.039 6 6 16
11.473 18.145 -47.039 6 6 16
11.598 17.941 -47.039 6 6 16
11.719 17.734 -47.039 6 6 16
11.834 17.524 -47.039 4 4 12
11.945 17.312 -47.039 4 4 12
12.050 17.097 -47.039 3 3 11
12.149 16.879 -47.039 3 3 11
12.244 16.659 -47.039 3 3 11
12.332 16.437 -47.039 3 3 11
12.416 16.212 -47.039 3 3 11
12.494 15.986 -47.039 3 3 11
12.566 15.758 -47.039 3 4 9
12.633 15.528 -47.039 3 4 9
12.694 15.296 -47.039 3 4 9
12.749 15.063 -47.039 3 4 9
12.799 14.829 -47.039 3 4 9
12.842 14.594 -47.039 3 4 9
12.880 14.357 -47.039 3 4 9
12.913 14.120 -47.039 3 4 9
12.939 13.882 -47.039 3 4 9
12.960 13.644 -47.039 3 4 9
12.974 13.405 -47.039 3 4 9
12.983 13.166 -47.039 3 4 9
12.986 12.926 -47.039 3 4 9
12.983 12.687 -47.039 3 4 9
12.974 12.448 -47.039 3 4 9
12.960 12.209 -47.039 3 4 9
12.939 11.970 -47.039 3 4 9
12.913 11.732 -47.039 3 4 9
12.880 11.495 -47.039 3 4 9
12.842 11.259 -47.039 3 4 9
12.799 11.023 -47.039 3 4 8
12.749 10.789 -47.039 3 4 8
12.694 10.556 -47.039 3 4 8
12.633 10.325 -47.039 3 4 8
12.566 10.095 -47.039 3 4 9
12.490 9.867 -47.022 3 3 11
12.397 9.647 -46.937 3 3 11
12.298 9.429 -46.852 3 3 11
12.194 9.214 -46.768 3 3 11
12.084 9.002 -46.681 3 3 11
11.970 8.793 -46.599 3 3 11
11.852 8.587 -46.518 3 3 11
11.728 8.385 -46.435 1 4 9
11.601 8.185 -46.356 0 5 8
11.468 7.989 -46.279 0 5 8
11.332 7.796 -46.205 0 5 8
11.193 7.607 -46.136 3 4 8
11.049 7.421 -46.067 3 4 8
10.900 7.239 -45.998 3 4 9
10.747 7.061 -45.927 3 3 11
10.590 6.887 -45.859 3 3 13
10.430 6.717 -45.794 3 3 13
10.266 6.551 -45.728 3 3 13
10.098 6.389 -45.661 3 3 13
9.926 6.232 -45.596 3 3 15
9.752 6.078 -45.536 3 3 15
9.574 5.929 -45.477 3 3 15
9.392 5.784 -45.419 3 3 15
9.208 5.644 -45.360 4 3 11
9.020 5.509 -45.300 4 3 9
8.829 5.379 -45.241 4 3 9
8.636 5.253 -45.184 4 3 9
8.439 5.132 -45.126 2 3 7
8.241 5.016 -45.070 2 3 7
8.039 4.906 -45.011 2 3 7
7.835 4.800 -44.951 2 3 7
7.628 4.700 -44.892 2 3 8
7.420 4.605 -44.835 2 3 8
7.210 4.515 -44.776 3 4 9
6.997 4.431 -44.715 3 4 9
6.783 4.353 -44.654 4 5 9
6.567 4.279 -44.595 4 5 9
6.350 4.211 -44.535 2 3 7
6.131 4.148 -44.477 3 4 8
5.912 4.090 -44.424 2 3 5
5.692 4.036 -44.375 3 4 6
5.471 3.987 -44.328 3 4 6
5.249 3.943 -44.284 2 3 5
5.026 3.904 -44.244 5 6 10
4.803 3.870 -44.208 4 5 10
4.579 3.841 -44.174 2 3 8
4.355 3.818 -44.139 3 4 9
4.130 3.801 -44.098 4 5 10
3.905 3.790 -44.054 5 6 11
3.681 3.785 -44.011 1 2 7
3.456 3.785 -43.971 2 3 8
3.232 3.790 -43.931 3 3 11
3.008 3.801 -43.891 3 3 13
2.784 3.817 -43.848 3 3 13
2.561 3.840 -43.804 5 5 15
2.339 3.868 -43.759 3 3 13
2.118 3.901 -43.715 3 3 11
1.898 3.939 -43.674 4 4 14
1.680 3.983 -43.632 5 5 15
1.462 4.032 -43.591 3 6 15
1.246 4.086 -43.552 2 5 14
1.032 4.144 -43.515 1 4 13
0.819 4.207 -43.480 1 4 13
0.607 4.276 -43.446 3 6 15
0.398 4.349 -43.411 2 5 14
0.190 4.427 -43.382 2 5 14
-0.015 4.509 -43.354 2 5 14
-0.219 4.596 -43.328 0 4 13
-0.420 4.688 -43.302 1 5 16
-0.619 4.784 -43.279 1 5 16
-0.816 4.885 -43.260 0 4 15
-1.011 4.990 -43.241 0 4 15
-1.202 5.100 -43.221 0 4 15
-1.390 5.215 -43.196 1 5 16
-1.575 5.335 -43.169 2 6 17
-1.757 5.460 -43.145 0 2 11
-1.937 5.588 -43.124 3 7 16
-2.113 5.720 -43.103 1 5 14
-2.285 5.857 -43.080 1 5 14
-2.454 5.998 -43.057 3 7 18
-2.620 6.143 -43.038 3 7 18
-2.783 6.291 -43.023 4 8 19
-2.942 6.442 -43.009 4 8 19
-3.097 6.598 -42.993 6 10 21
-3.248 6.757 -42.975 6 10 21
-3.394 6.921 -42.956 5 9 20
-3.537 7.088 -42.939 6 10 21
-3.676 7.257 -42.924 8 12 24
-3.811 7.430 -42.910 7 11 23
-3.941 7.606 -42.896 5 9 21
-4.067 7.786 -42.880 7 11 23
-4.189 7.968 -42.864 7 11 22
-4.305 8.154 -42.848 7 11 22
-4.417 8.342 -42.830 10 14 25
-4.524 8.533 -42.809 12 16 27
-4.625 8.727 -42.785 12 16 27
-4.721 8.923 -42.762 12 14 26
-4.813 9.121 -42.738 13 15 27
-4.899 9.322 -42.712 13 15 27
-4.980 9.525 -42.684 12 16 27
-5.055 9.730 -42.651 12 16 28
-5.125 9.936 -42.617 15 19 31
-5.189 10.144 -42.585 11 15 27
-5.250 10.353 -42.557 14 18 29
-5.305 10.564 -42.530 13 17 28
-5.355 10.775 -42.502 15 19 30
-5.400 10.988 -42.473 14 18 29
-5.440 11.201 -42.448 11 15 26
-5.475 11.415 -42.427 11 15 26
-5.507 11.630 -42.410 10 14 25
-5.532 11.845 -42.392 9 13 24
-5.552 12.061 -42.373 12 14 27
-5.567 12.277 -42.353 12 14 27
-5.576 12.494 -42.331 9 11 24
-5.579 12.710 -42.307 8 10 23
-5.576 12.926 -42.280 10 13 22
-5.568 13.142 -42.253 9 12 21
-5.556 13.358 -42.231 7 10 19
-5.538 13.573 -42.208 6 9 18
-5.515 13.788 -42.183 6 11 15
-5.485 14.001 -42.153 6 11 15
-5.449 14.214 -42.120 6 11 15
-5.409 14.425 -42.087 5 10 14
-5.364 14.636 -42.058 4 8 17
-5.313 14.845 -42.029 4 7 16
-5.258 15.053 -41.997 3 6 15
-5.197 15.259 -41.965 5 8 17
-5.132 15.463 -41.937 3 6 13
-5.063 15.666 -41.915 2 5 10
-4.989 15.868 -41.896 4 7 12
-4.911 16.067 -41.877 4 7 12
-4.828 16.265 -41.856 3 6 13
-4.740 16.460 -41.834 2 5 14
-4.647 16.653 -41.816 2 5 14
-4.551 16.844 -41.801 1 4 13
-4.450 17.032 -41.786 1 4 13
-4.344 17.217 -41.769 2 5 14
-4.233 17.401 -41.754 3 6 15
-4.120 17.582 -41.747 0 3 12
-4.003 17.760 -41.741 2 2 12
-3.881 17.935 -41.735 2 2 12
-3.755 18.108 -41.730 3 3 13
-3.625 18.277 -41.724 4 4 14
-3.491 18.444 -41.723 2 5 10
-3.354 18.607 -41.725 1 4 9
-3.214 18.768 -41.730 1 4 9
-3.069 18.925 -41.735 1 4 9
-2.920 19.078 -41.737 1 2 7
-2.768 19.227 -41.740 3 4 9
-2.612 19.373 -41.743 3 4 9
-2.452 19.515 -41.748 4 5 10
-2.289 19.654 -41.752 3 4 9
-2.123 19.787 -41.751 2 3 8
-1.952 19.916 -41.750 3 4 9
-1.780 20.042 -41.752 2 3 8
-1.604 20.163 -41.758 0 1 6
-1.426 20.282 -41.769 2 3 8
-1.245 20.395 -41.778 2 3 8
-1.061 20.504 -41.784 2 3 8
-0.875 20.608 -41.792 2 3 8
-0.686 20.709 -41.803 2 3 8
-0.495 20.806 -41.822 3 4 9
-0.302 20.899 -41.842 2 3 8
-0.107 20.986 -41.858 3 4 9
0.091 21.069 -41.875 2 3 8
0.290 21.147 -41.893 3 4 9
0.491 21.221 -41.916 4 5 10
0.694 21.290 -41.940 3 4 9
0.899 21.355 -41.965 4 5 10
1.105 21.414 -41.991 2 3 8
1.313 21.470 -42.022 3 4 9
1.522 21.520 -42.052 5 4 10
1.733 21.565 -42.078 5 4 10
1.944 21.603 -42.100 3 2 8
2.157 21.636 -42.121 4 3 9
2.371 21.664 -42.138 4 3 9
2.586 21.679 -42.124 4 3 9
2.801 21.694 -42.130 4 3 9
3.016 21.710 -42.172 4 3 9
3.232 21.877 -47.192 31 36 39
3.451 21.874 -47.192 30 35 39
3.671 21.866 -47.192 27 32 38
3.890 21.853 -47.192 29 33 42
4.109 21.834 -47.192 28 36 39
4.327 21.810 -47.192 28 36 39
4.545 21.780 -47.192 27 35 38
4.762 21.745 -47.192 27 35 38
4.978 21.705 -47.192 27 32 38
5.193 21.660 -47.192 26 31 37
5.406 21.609 -47.192 27 32 38
5.619 21.553 -47.192 28 33 39
5.830 21.492 -47.192 25 30 34
6.039 21.425 -47.192 26 31 35
6.247 21.354 -47.192 26 31 37
6.453 21.277 -47.192 25 29 38
6.657 21.196 -47.192 24 29 35
6.859 21.109 -47.192 22 27 31
7.059 21.018 -47.192 19 24 28
7.256 20.921 -47.192 18 23 27
7.451 20.820 -47.192 17 20 25
7.643 20.714 -47.192 15 18 23
7.833 20.604 -47.192 13 16 21
8.020 20.488 -47.192 11 14 19
8.204 20.369 -47.192 10 13 20
8.386 20.244 -47.192 8 11 18
8.564 20.116 -47.192 6 9 16
8.738 19.983 -47.192 6 9 16
8.910 19.845 -47.192 4 7 14
9.078 19.704 -47.192 3 6 13
9.243 19.558 -47.192 4 7 14
9.404 19.409 -47.192 1 4 11
9.561 19.255 -47.192 4 4 12
9.714 19.098 -47.192 4 4 12
9.864 18.937 -47.192 3 3 11
10.009 18.773 -47.192 4 4 12
10.151 18.605 -47.192 2 2 10
10.288 18.433 -47.192 2 2 10
10.421 18.258 -47.192 5 5 13
10.550 18.080 -47.192 3 3 11
10.674 17.899 -47.192 3 3 11
10.794 17.715 -47.192 3 3 11
10.909 17.528 -47.192 3 3 11
11.020 17.338 -47.192 3 3 11
11.125 17.146 -47.192 3 3 11
11.227 16.951 -47.192 3 3 11
11.323 16.753 -47.192 3 3 11
11.414 16.553 -47.192 3 3 11
11.501 16.352 -47.192 3 4 9
11.583 16.148 -47.192 3 4 9
11.659 15.942 -47.192 3 4 9
11.731 15.734 -47.192 3 4 9
11.797 15.525 -47.192 3 4 9
11.858 15.314 -47.192 3 4 9
11.914 15.101 -47.192 3 4 9
11.965 14.887 -47.192 3 4 9
12.010 14.672 -47.192 3 4 9
12.051 14.456 -47.192 3 4 9
12.086 14.240 -47.192 3 4 9
12.115 14.022 -47.192 3 4 9
12.139 13.804 -47.192 3 4 9
12.158 13.585 -47.192 3 4 9
12.172 13.365 -47.192 3 4 9
12.180 13.146 -47.192 3 4 9
12.182 12.926 -47.192 3 4 9
12.180 12.707 -47.192 3 4 9
12.172 12.487 -47.192 3 4 9
12.158 12.268 -47.192 3 4 9
12.139 12.049 -47.192 3 4 9
12.115 11.831 -47.192 3 4 9
12.086 11.613 -47.192 3 4 9
12.051 11.396 -47.192 3 4 9
12.010 11.180 -47.192 3 4 9
11.965 10.965 -47.192 3 4 9
11.914 10.751 -47.192 3 4 9
11.858 10.539 -47.192 3 4 9
11.783 10.332 -47.112 3 3 11
11.702 10.128 -47.027 3 3 11
11.616 9.926 -46.938 3 3 11
11.524 9.727 -46.849 3 3 11
11.429 9.531 -46.762 3 4 9
11.328 9.337 -46.675 3 4 8
11.224 9.146 -46.592 3 4 8
11.116 8.958 -46.511 3 4 8
11.003 8.772 -46.432 3 4 9
10.888 8.589 -46.358 3 4 9
10.767 8.409 -46.285 3 4 9
10.643 8.233 -46.214 3 4 9
10.516 8.059 -46.146 3 4 8
10.384 7.889 -46.080 3 4 9
10.249 7.722 -46.017 3 3 11
10.110 7.558 -45.950 3 3 13
9.967 7.399 -45.883 1 4 11
9.820 7.243 -45.819 1 4 9
9.670 7.091 -45.756 1 4 9
9.517 6.942 -45.694 1 4 9
9.360 6.798 -45.633 1 4 11
9.200 6.657 -45.574 1 4 11
9.038 6.520 -45.519 1 4 11
8.873 6.386 -45.466 1 4 11
8.705 6.257 -45.413 3 3 11
8.533 6.133 -45.359 3 3 11
8.359 6.013 -45.304 3 3 11
8.182 5.897 -45.250 3 3 11
8.003 5.785 -45.200 1 4 9
7.822 5.678 -45.151 1 4 9
7.637 5.576 -45.098 1 4 9
7.450 5.479 -45.039 1 4 9
7.261 5.387 -44.981 0 3 10
7.071 5.299 -44.931 0 3 10
6.879 5.214 -44.884 1 4 11
6.685 5.134 -44.841 2 5 12
6.490 5.059 -44.799 2 5 14
6.294 4.988 -44.762 2 5 14
6.096 4.921 -44.724 2 5 14
5.896 4.860 -44.687 3 6 15
5.696 4.803 -44.652 3 6 15
5.494 4.751 -44.617 2 6 15
5.291 4.705 -44.581 0 4 13
5.087 4.663 -44.546 1 5 14
4.883 4.625 -44.514 0 4 13
4.678 4.592 -44.485 0 4 13
4.472 4.564 -44.458 0 3 12
4.266 4.541 -44.432 0 3 12
4.059 4.524 -44.401 0 4 13
3.852 4.512 -44.366 3 7 16
3.645 4.506 -44.331 2 6 15
3.438 4.505 -44.294 3 7 16
3.232 4.509 -44.259 4 8 19
3.025 4.518 -44.223 4 8 20
2.819 4.533 -44.185 5 9 21
2.614 4.551 -44.152 8 12 24
2.409 4.575 -44.119 10 14 23
2.205 4.603 -44.092 10 14 23
2.002 4.634 -44.071 12 16 25
1.799 4.670 -44.052 16 20 29
1.598 4.712 -44.030 16 20 31
1.397 4.758 -44.009 18 22 34
1.198 4.809 -43.991 22 26 38
1.000 4.864 -43.974 22 26 38
0.804 4.924 -43.957 24 28 40
0.609 4.988 -43.945 26 30 42
0.416 5.057 -43.935 27 31 43
0.224 5.130 -43.925 31 35 47
0.035 5.208 -43.912 28 35 45
-0.153 5.291 -43.900 32 39 49
-0.339 5.378 -43.890 34 41 51
-0.522 5.469 -43.881 35 42 52
-0.703 5.565 -43.871 36 43 53
-0.881 5.666 -43.858 36 43 53
-1.057 5.772 -43.842 38 45 55
-1.229 5.882 -43.826 39 46 56
-1.400 5.995 -43.812 40 47 57
-1.567 6.113 -43.798 40 46 58
-1.731 6.235 -43.782 42 48 60
-1.892 6.362 -43.764 42 48 60
-2.049 6.492 -43.745 44 50 62
-2.203 6.626 -43.729 44 50 62
-2.354 6.763 -43.714 43 49 61
-2.502 6.904 -43.701 43 49 61
-2.647 7.048 -43.688 44 50 62
-2.787 7.196 -43.673 44 50 62
-2.924 7.347 -43.656 44 50 62
-3.057 7.502 -43.642 45 51 63
-3.186 7.659 -43.629 45 51 65
-3.312 7.820 -43.614 44 50 64
-3.433 7.984 -43.600 44 50 64
-3.550 8.150 -43.584 44 50 64
-3.662 8.320 -43.568 42 48 60
-3.771 8.492 -43.550 47 54 64
-3.875 8.667 -43.532 44 51 61
-3.974 8.844 -43.512 46 53 63
-4.068 9.025 -43.487 49 53 65
-4.157 9.207 -43.462 47 51 63
-4.242 9.391 -43.436 47 51 63
-4.322 9.578 -43.407 47 51 63
-4.396 9.767 -43.376 47 53 65
-4.466 9.957 -43.341 46 52 64
-4.530 10.149 -43.303 43 49 61
-4.589 10.343 -43.266 44 50 62
-4.644 10.537 -43.232 45 52 62
-4.696 10.732 -43.203 44 51 61
-4.742 10.929 -43.172 47 54 64
-4.782 11.127 -43.139 46 53 63
-4.818 11.325 -43.107 43 50 60
-4.850 11.524 -43.080 43 50 60
-4.878 11.723 -43.056 42 49 59
-4.901 11.923 -43.035 42 49 59
-4.919 12.123 -43.011 43 46 61
-4.932 12.324 -42.988 43 46 61
-4.940 12.525 -42.964 42 45 60
-4.943 12.726 -42.939 41 44 59
-4.941 12.926 -42.915 41 44 59
-4.934 13.127 -42.890 38 44 58
-4.922 13.327 -42.865 35 41 55
-4.905 13.526 -42.839 35 41 55
-4.883 13.725 -42.813 34 41 51
-4.856 13.924 -42.786 34 41 51
-4.824 14.121 -42.754 34 41 51
-4.786 14.317 -42.721 33 40 50
-4.743 14.513 -42.687 33 37 48
-4.696 14.706 -42.654 32 36 47
-4.644 14.899 -42.619 28 32 43
-4.586 15.090 -42.581 31 35 46
-4.524 15.279 -42.544 28 32 43
-4.458 15.466 -42.506 30 34 45
-4.388 15.652 -42.474 27 31 42
-4.314 15.837 -42.445 27 31 42
-4.235 16.019 -42.418 28 32 41
-4.152 16.199 -42.388 26 30 39
-4.065 16.377 -42.358 24 28 37
-3.973 16.553 -42.328 21 25 34
-3.877 16.726 -42.298 23 27 36
-3.777 16.896 -42.268 20 24 33
-3.673 17.065 -42.240 20 24 33
-3.565 17.230 -42.215 18 22 31
-3.454 17.393 -42.191 17 21 30
-3.339 17.554 -42.167 16 20 29
-3.220 17.711 -42.143 14 18 27
-3.097 17.865 -42.117 12 16 25
-2.971 18.016 -42.096 10 15 21
-2.842 18.165 -42.078 9 14 20
-2.709 18.310 -42.063 9 14 20
-2.573 18.453 -42.049 9 14 20
-2.433 18.591 -42.030 5 10 16
-2.291 18.726 -42.014 5 10 16
-2.145 18.858 -42.001 5 10 16
-1.996 18.987 -41.989 4 9 15
-1.845 19.112 -41.977 5 8 15
-1.690 19.232 -41.962 5 8 15
-1.532 19.349 -41.949 4 7 14
-1.372 19.463 -41.938 3 6 13
-1.209 19.572 -41.930 2 5 12
-1.045 19.679 -41.928 1 4 11
-0.877 19.782 -41.926 1 4 11
-0.708 19.880 -41.921 1 4 11
-0.535 19.973 -41.915 0 3 10
-0.361 20.063 -41.911 0 3 10
-0.185 20.150 -41.915 0 3 10
-0.007 20.233 -41.926 0 3 10
0.172 20.313 -41.939 1 4 11
0.353 20.387 -41.950 1 4 11
0.537 20.457 -41.958 0 3 10
0.722 20.523 -41.970 1 4 11
0.908 20.586 -41.991 0 3 10
1.095 20.645 -42.016 1 4 11
1.284 20.700 -42.041 1 4 11
1.475 20.750 -42.071 2 5 12
1.666 20.796 -42.097 2 3 8
1.859 20.836 -42.121 2 3 8
2.053 20.871 -42.144 2 3 8
2.248 20.902 -42.168 3 4 9
2.443 20.928 -42.191 3 4 9
2.640 20.946 -42.194 3 4 9
2.837 20.961 -42.211 3 4 9
3.034 20.975 -42.247 3 4 9
3.232 21.071 -47.332 21 25 28
3.431 21.069 -47.332 20 23 28
3.631 21.061 -47.332 17 20 27
3.831 21.049 -47.332 19 22 31
4.030 21.032 -47.332 21 26 32
4.229 21.010 -47.332 13 18 24
4.427 20.983 -47.332 15 20 26
4.624 20.951 -47.332 11 16 22
4.821 20.914 -47.332 10 13 20
5.016 20.873 -47.332 9 12 19
5.211 20.827 -47.332 8 11 18
5.404 20.776 -47.332 6 9 16
5.596 20.720 -47.332 3 6 11
5.786 20.660 -47.332 3 6 11
5.975 20.595 -47.332 2 5 10
6.163 20.525 -47.332 2 5 12
6.348 20.451 -47.332 3 6 11
6.532 20.372 -47.332 2 6 9
6.714 20.289 -47.332 1 5 8
6.894 20.201 -47.332 1 5 8
7.071 20.109 -47.332 3 4 9
7.246 20.013 -47.332 3 4 9
7.419 19.912 -47.332 3 4 9
7.589 19.807 -47.332 3 4 9
7.757 19.698 -47.332 3 3 11
7.921 19.585 -47.332 3 3 11
8.083 19.468 -47.332 3 3 11
8.242 19.347 -47.332 3 3 11
8.399 19.222 -47.332 2 3 8
8.551 19.094 -47.332 4 5 10
8.701 18.961 -47.332 3 4 9
8.848 18.825 -47.332 3 4 9
8.991 18.685 -47.332 3 4 9
9.130 18.542 -47.332 3 4 9
9.266 18.396 -47.332 2 3 8
9.399 18.246 -47.332 3 4 9
9.528 18.093 -47.332 3 3 11
9.652 17.937 -47.332 3 3 11
9.773 17.778 -47.332 3 3 11
9.891 17.616 -47.332 3 3 11
10.004 17.451 -47.332 3 4 9
10.113 17.284 -47.332 3 4 9
10.218 17.113 -47.332 3 4 9
10.318 16.941 -47.332 3 4 9
10.415 16.766 -47.332 3 3 11
10.507 16.588 -47.332 3 3 11
10.594 16.409 -47.332 3 3 11
10.678 16.227 -47.332 3 3 11
10.756 16.043 -47.332 3 4 9
10.831 15.857 -47.332 3 4 9
10.900 15.670 -47.332 3 4 9
10.965 15.481 -47.332 3 4 9
11.026 15.291 -47.332 3 4 9
11.081 15.099 -47.332 3 4 9
11.132 14.905 -47.332 3 4 9
11.178 14.711 -47.332 3 4 9
11.220 14.515 -47.332 3 4 9
11.256 14.319 -47.332 3 4 9
11.288 14.121 -47.332 3 4 9
11.315 13.923 -47.332 3 4 9
11.337 13.725 -47.332 3 4 9
11.354 13.525 -47.332 3 4 9
11.367 13.326 -47.332 3 4 9
11.374 13.126 -47.332 3 4 9
11.376 12.926 -47.332 3 4 9
11.374 12.726 -47.332 3 4 9
11.367 12.527 -47.332 3 4 9
11.354 12.327 -47.332 3 4 9
11.337 12.128 -47.332 3 4 9
11.315 11.929 -47.332 3 4 9
11.288 11.731 -47.332 4 5 10
11.256 11.534 -47.332 2 3 8
11.220 11.337 -47.332 1 4 11
11.178 11.142 -47.332 3 6 13
11.132 10.947 -47.332 1 4 11
11.075 10.756 -47.294 0 3 10
11.007 10.568 -47.213 0 3 10
10.934 10.382 -47.134 0 2 9
10.857 10.198 -47.052 1 4 11
10.775 10.016 -46.971 1 4 11
10.689 9.837 -46.891 1 4 9
10.599 9.660 -46.813 0 4 7
10.506 9.486 -46.740 2 6 9
10.409 9.313 -46.669 2 6 9
10.308 9.144 -46.601 4 5 10
10.204 8.976 -46.537 3 3 11
10.096 8.812 -46.471 3 3 11
9.984 8.650 -46.410 2 2 10
9.869 8.491 -46.354 1 4 9
9.752 8.334 -46.302 1 4 11
9.630 8.181 -46.250 2 5 14
9.504 8.031 -46.191 0 2 14
9.374 7.885 -46.132 2 5 12
9.242 7.742 -46.077 0 5 9
9.106 7.602 -46.022 1 6 10
8.967 7.465 -45.967 0 5 9
8.825 7.333 -45.913 2 7 13
8.680 7.204 -45.857 0 5 11
8.532 7.078 -45.807 0 5 11
8.382 6.955 -45.760 3 8 14
8.229 6.836 -45.717 1 5 14
8.074 6.721 -45.674 0 4 15
7.916 6.610 -45.629 1 5 16
7.756 6.503 -45.588 3 7 18
7.593 6.399 -45.551 1 5 14
7.429 6.298 -45.517 1 8 16
7.262 6.202 -45.482 3 10 18
7.093 6.111 -45.446 5 12 20
6.921 6.023 -45.407 8 12 23
6.749 5.939 -45.379 11 15 26
6.574 5.858 -45.357 15 19 30
6.399 5.781 -45.340 18 22 33
6.222 5.707 -45.329 21 25 37
6.043 5.637 -45.319 20 26 38
5.863 5.572 -45.312 24 30 42
5.681 5.510 -45.305 27 33 45
5.498 5.454 -45.295 29 37 48
5.314 5.402 -45.287 28 36 47
5.128 5.355 -45.277 37 45 56
4.941 5.312 -45.265 37 45 56
4.753 5.275 -45.250 36 44 55
4.565 5.243 -45.231 39 47 58
4.375 5.215 -45.215 40 48 59
4.185 5.193 -45.197 43 51 62
3.995 5.175 -45.178 42 50 61
3.804 5.161 -45.159 45 53 64
3.613 5.153 -45.136 47 55 66
3.422 5.150 -45.113 47 55 66
3.232 5.151 -45.097 48 56 69
3.041 5.156 -45.079 48 56 69
2.850 5.166 -45.059 50 58 71
2.660 5.180 -45.043 50 58 71
2.471 5.199 -45.027 52 60 71
2.281 5.223 -45.012 51 60 69
2.093 5.251 -44.995 52 61 70
1.906 5.284 -44.979 52 61 70
1.719 5.322 -44.961 53 59 73
1.533 5.364 -44.942 55 61 75
1.349 5.411 -44.923 54 60 74
1.166 5.463 -44.905 55 61 75
0.984 5.518 -44.888 57 63 77
0.804 5.578 -44.872 56 62 76
0.625 5.642 -44.857 53 59 73
0.448 5.711 -44.843 53 59 73
0.273 5.784 -44.826 57 63 75
0.100 5.861 -44.810 57 64 74
-0.072 5.942 -44.794 59 66 76
-0.241 6.028 -44.779 56 63 73
-0.408 6.117 -44.764 58 65 75
-0.573 6.211 -44.748 58 65 75
-0.735 6.308 -44.733 56 63 73
-0.895 6.410 -44.717 57 64 74
-1.052 6.515 -44.700 57 63 77
-1.206 6.625 -44.682 57 63 77
-1.358 6.738 -44.662 58 64 78
-1.506 6.856 -44.640 57 63 77
-1.651 6.977 -44.615 58 64 76
-1.792 7.102 -44.587 57 63 75
-1.931 7.231 -44.559 57 63 75
-2.066 7.362 -44.532 58 64 76
-2.198 7.497 -44.506 60 66 78
-2.326 7.635 -44.479 57 63 75
-2.451 7.776 -44.449 59 65 77
-2.572 7.920 -44.421 59 65 77
-2.690 8.067 -44.395 58 64 76
-2.804 8.216 -44.371 57 63 75
-2.915 8.368 -44.348 59 65 77
-3.021 8.522 -44.323 58 64 76
-3.124 8.680 -44.297 59 66 76
-3.223 8.839 -44.272 57 64 74
-3.318 9.001 -44.249 57 64 74
-3.409 9.164 -44.226 57 64 74
-3.495 9.331 -44.200 58 62 74
-3.578 9.499 -44.172 57 61 73
-3.655 9.669 -44.144 57 61 73
-3.729 9.841 -44.116 57 61 73
-3.798 10.014 -44.088 56 63 73
-3.863 10.189 -44.058 56 63 73
-3.923 10.366 -44.024 55 62 72
-3.979 10.544 -43.993 53 60 70
-4.031 10.723 -43.965 52 59 69
-4.078 10.903 -43.940 53 60 70
-4.122 11.084 -43.914 53 60 70
-4.160 11.266 -43.882 53 60 70
-4.193 11.449 -43.849 51 58 68
-4.222 11.633 -43.819 51 58 68
-4.247 11.817 -43.790 52 59 69
-4.267 12.001 -43.760 50 57 67
-4.282 12.186 -43.729 48 54 66
-4.293 12.371 -43.698 50 56 68
-4.299 12.556 -43.668 49 55 67
-4.301 12.741 -43.638 48 54 66
-4.298 12.926 -43.608 47 53 69
-4.291 13.111 -43.580 46 53 69
-4.280 13.295 -43.552 45 52 68
-4.264 13.479 -43.525 45 52 68
-4.244 13.662 -43.498 46 52 66
-4.219 13.845 -43.470 44 50 64
-4.189 14.027 -43.440 44 50 64
-4.155 14.208 -43.407 44 50 64
-4.116 14.388 -43.374 41 45 57
-4.073 14.566 -43.342 41 45 57
-4.025 14.744 -43.309 43 47 59
-3.973 14.920 -43.276 42 46 58
-3.917 15.095 -43.245 39 45 59
-3.857 15.268 -43.216 41 47 61
-3.793 15.440 -43.188 39 45 59
-3.725 15.610 -43.162 37 43 57
-3.653 15.778 -43.134 36 42 54
-3.576 15.944 -43.104 36 43 53
-3.496 16.108 -43.074 37 44 54
-3.411 16.270 -43.044 35 42 52
-3.323 16.430 -43.016 37 44 54
-3.231 16.587 -42.986 34 41 51
-3.135 16.742 -42.959 34 41 51
-3.036 16.895 -42.933 32 39 49
-2.933 17.045 -42.906 29 38 47
-2.826 17.192 -42.877 32 41 50
-2.716 17.337 -42.847 31 40 49
-2.602 17.479 -42.818 31 40 49
-2.485 17.618 -42.792 29 36 46
-2.365 17.754 -42.768 28 35 45
-2.242 17.887 -42.744 29 36 46
-2.116 18.017 -42.720 28 35 45
-1.986 18.144 -42.693 25 34 43
-1.853 18.267 -42.667 27 36 45
-1.718 18.387 -42.641 22 31 40
-1.580 18.504 -42.617 22 31 40
-1.439 18.618 -42.595 26 30 41
-1.296 18.728 -42.572 25 29 40
-1.150 18.834 -42.551 22 26 37
-1.002 18.937 -42.531 19 23 34
-0.851 19.036 -42.510 19 23 32
-0.698 19.132 -42.491 17 24 32
-0.543 19.224 -42.471 15 22 30
-0.386 19.312 -42.452 15 22 30
-0.227 19.396 -42.433 14 21 29
-0.065 19.476 -42.413 12 19 27
0.098 19.552 -42.397 12 19 27
0.262 19.625 -42.383 10 17 25
0.428 19.694 -42.369 8 15 23
0.596 19.759 -42.356 8 15 23
0.765 19.819 -42.340 6 13 21
0.936 19.875 -42.328 6 13 21
1.107 19.929 -42.324 6 13 21
1.280 19.980 -42.327 3 10 18
1.453 20.027 -42.336 3 10 18
1.627 20.070 -42.345 3 10 18
1.803 20.107 -42.348 3 8 14
1.980 20.141 -42.351 0 5 11
2.157 20.170 -42.357 1 6 12
2.335 20.197 -42.374 3 8 14
2.513 20.220 -42.393 2 7 13
2.692 20.236 -42.396 2 7 13
2.872 20.250 -42.412 0 4 10
3.052 20.260 -42.432 2 7 13
3.232 20.263 -47.459 1 5 8
3.412 20.261 -47.459 2 5 10
3.592 20.254 -47.459 2 5 12
3.771 20.243 -47.459 1 4 13
3.951 20.227 -47.459 3 6 15
4.130 20.208 -47.459 14 17 26
4.308 20.183 -47.459 9 12 21
4.486 20.155 -47.459 3 6 15
4.663 20.122 -47.459 3 6 13
4.839 20.084 -47.459 1 4 11
5.014 20.043 -47.459 2 5 12
5.188 19.997 -47.459 2 5 12
5.361 19.947 -47.459 0 4 7
5.533 19.892 -47.459 0 4 7
5.703 19.834 -47.459 1 4 9
5.872 19.771 -47.459 1 4 9
6.039 19.704 -47.459 2 5 10
6.205 19.633 -47.459 1 5 8
6.368 19.558 -47.459 1 5 8
6.530 19.479 -47.459 1 5 8
6.690 19.396 -47.459 3 4 9
6.848 19.310 -47.459 3 4 9
7.003 19.219 -47.459 3 4 9
7.157 19.124 -47.459 3 4 9
7.308 19.026 -47.459 3 3 11
7.456 18.924 -47.459 3 3 11
7.602 18.819 -47.459 3 3 11
7.745 18.710 -47.459 3 3 11
7.886 18.597 -47.459 2 3 8
8.024 18.481 -47.459 3 4 8
8.158 18.362 -47.459 2 3 7
8.290 18.240 -47.459 2 3 7
8.419 18.114 -47.459 3 4 8
8.545 17.985 -47.459 3 4 8
8.668 17.853 -47.459 2 3 7
8.787 17.718 -47.459 3 4 8
8.903 17.580 -47.459 3 3 11
9.015 17.440 -47.459 3 3 11
9.124 17.297 -47.459 3 3 11
9.230 17.151 -47.459 3 3 11
9.332 17.002 -47.459 3 4 9
9.430 16.851 -47.459 3 4 8
9.524 16.698 -47.459 3 4 8
9.615 16.542 -47.459 3 4 8
9.702 16.385 -47.459 3 3 11
9.785 16.225 -47.459 3 3 11
9.864 16.063 -47.459 3 3 11
9.939 15.899 -47.459 3 3 11
10.010 15.734 -47.459 3 4 9
10.076 15.567 -47.459 3 4 9
10.139 15.398 -47.459 3 4 9
10.198 15.228 -47.459 3 4 9
10.252 15.056 -47.459 3 4 9
10.302 14.883 -47.459 3 4 9
10.348 14.709 -47.459 3 4 9
10.390 14.534 -47.459 3 4 9
10.427 14.357 -47.459 3 4 9
10.460 14.180 -47.459 3 4 9
10.489 14.003 -47.459 3 4 9
10.513 13.824 -47.459 3 4 9
10.533 13.645 -47.459 3 4 9
10.548 13.466 -47.459 3 4 9
10.559 13.286 -47.459 3 4 9
10.566 13.106 -47.459 3 4 9
10.568 12.926 -47.459 3 4 9
10.566 12.746 -47.459 3 4 9
10.559 12.566 -47.459 3 4 9
10.548 12.387 -47.459 3 4 9
10.533 12.207 -47.459 3 4 9
10.513 12.028 -47.459 3 4 9
10.489 11.850 -47.459 2 3 8
10.460 11.672 -47.459 2 3 8
10.427 11.495 -47.459 1 4 11
10.390 11.319 -47.459 1 5 14
10.348 11.144 -47.459 1 5 14
10.302 10.969 -47.459 2 6 15
10.252 10.797 -47.459 0 5 11
10.194 10.626 -47.432 1 6 12
10.126 10.459 -47.363 0 5 11
10.054 10.294 -47.298 0 5 11
