ply
format ascii 1.0
element vertex 1687
property float x
property float y
property float z
property uchar red
property uchar green
property uchar blue
end_header
-0.186 11.614 1.666 39 52 26
-0.115 11.659 1.667 34 46 32
-0.044 11.705 1.668 20 33 13
0.037 11.736 1.671 52 56 29
-5.674 19.187 0.747 48 41 23
-5.497 19.472 0.735 47 34 28
-5.277 19.708 0.729 43 32 30
-5.034 19.914 0.726 42 31 29
-4.784 20.113 0.723 44 30 29
-4.533 20.313 0.719 44 33 31
-4.272 20.501 0.716 44 34 32
-3.987 20.646 0.717 41 38 31
-3.690 20.766 0.720 42 43 27
0.861 11.891 1.702 54 59 36
0.999 11.763 1.719 21 31 4
1.090 11.726 1.726 66 79 51
1.185 11.668 1.735 73 77 40
1.344 11.420 1.763 136 129 83
1.448 11.295 1.778 118 103 60
1.513 11.271 1.782 97 85 47
1.566 11.281 1.783 109 95 60
1.618 11.297 1.783 135 119 86
1.670 11.314 1.782 162 143 113
1.722 11.331 1.782 96 80 46
1.773 11.354 1.780 110 98 56
1.825 11.377 1.779 128 122 72
1.878 11.399 1.777 84 84 34
1.932 11.410 1.777 79 77 29
1.989 11.404 1.778 65 68 25
2.043 11.414 1.777 106 112 66
2.098 11.433 1.776 88 90 40
2.154 10.555 1.839 144 133 113
2.189 10.547 1.840 79 68 48
2.222 10.534 1.841 67 54 35
2.255 10.523 1.842 75 63 41
2.288 10.513 1.843 98 83 64
2.320 10.502 1.844 89 72 54
2.351 10.484 1.846 99 83 60
2.382 10.469 1.847 76 61 30
2.413 10.455 1.848 128 109 69
2.442 10.435 1.849 104 85 45
2.469 10.412 1.851 71 55 19
2.495 10.388 1.853 70 56 21
2.522 10.368 1.854 96 81 50
2.550 10.353 1.855 102 93 62
2.577 10.336 1.856 107 101 75
2.602 10.317 1.857 68 60 37
2.629 10.302 1.857 93 87 65
2.657 10.291 1.857 60 55 36
2.682 10.271 1.858 58 55 40
2.705 10.250 1.859 63 60 41
2.728 10.230 1.860 58 60 46
2.747 10.202 1.862 40 42 28
2.764 10.173 1.864 54 55 39
2.780 10.144 1.865 80 78 66
2.795 10.114 1.867 63 64 50
2.811 10.089 1.869 67 67 55
2.825 10.061 1.870 49 50 42
2.839 10.033 1.872 50 52 47
2.854 10.008 1.873 59 64 58
2.866 9.981 1.875 48 55 47
2.877 9.953 1.876 41 49 38
2.884 9.923 1.878 54 62 49
2.888 9.890 1.881 61 64 57
2.886 9.853 1.884 50 52 47
2.946 9.774 1.885 106 105 84
2.999 9.782 1.879 97 94 63
3.051 9.788 1.874 119 113 79
3.093 9.783 1.870 146 136 109
3.128 9.773 1.867 86 78 55
3.160 9.759 1.865 100 92 73
3.193 9.745 1.863 98 83 60
3.223 9.728 1.861 135 122 106
3.238 9.701 1.860 82 70 54
3.241 9.670 1.862 90 82 63
3.240 9.637 1.863 69 70 54
3.244 9.608 1.864 65 68 57
3.247 9.578 1.865 48 49 41
3.257 9.551 1.865 64 65 51
3.275 9.526 1.864 72 72 48
3.302 9.504 1.862 93 86 68
3.335 9.483 1.859 101 90 68
3.367 9.460 1.856 85 78 52
3.395 9.435 1.854 92 91 71
3.415 9.407 1.852 60 64 49
3.428 9.377 1.851 66 68 57
3.438 9.346 1.851 58 55 46
3.449 9.316 1.850 82 76 60
3.449 9.284 1.850 69 63 51
3.453 9.252 1.850 43 37 23
3.448 9.220 1.851 64 59 40
3.427 9.187 1.854 69 62 46
3.409 9.156 1.856 63 55 34
3.385 9.126 1.858 145 140 120
3.352 9.097 1.862 83 81 66
3.301 9.071 1.868 87 84 67
3.261 9.047 1.872 69 69 45
3.227 9.024 1.876 144 146 122
3.229 8.997 1.875 58 58 34
3.219 8.971 1.876 130 128 103
3.211 8.946 1.876 94 92 71
3.201 8.921 1.877 108 104 77
3.192 8.896 1.877 127 122 90
3.176 8.873 1.878 86 79 50
3.143 8.856 1.881 96 91 59
3.104 8.842 1.885 104 103 75
3.889 8.229 1.774 85 91 45
4.000 8.111 1.756 132 142 90
3.976 8.064 1.756 66 78 28
3.956 8.015 1.755 62 73 30
3.936 7.966 1.754 76 88 40
3.904 7.924 1.754 62 75 29
3.864 7.888 1.755 67 82 41
3.821 7.856 1.757 61 77 38
3.770 7.830 1.760 64 72 33
3.566 7.939 1.786 91 91 55
3.318 8.102 1.819 128 124 89
2.980 8.370 1.869 144 140 105
2.689 8.312 1.885 126 112 75
2.670 8.295 1.885 95 85 58
2.646 8.288 1.885 92 88 63
2.493 8.211 1.884 137 132 94
2.474 8.188 1.883 123 114 73
2.452 8.174 1.882 92 86 52
2.430 8.162 1.881 108 102 66
2.405 8.157 1.881 125 117 98
2.378 8.158 1.882 88 83 63
2.354 8.150 1.882 112 109 76
2.330 8.143 1.882 126 121 81
2.306 8.134 1.881 110 102 56
2.281 8.131 1.881 139 126 82
2.254 8.140 1.883 113 100 58
2.228 8.156 1.885 126 110 77
2.182 8.015 1.869 97 92 62
2.154 8.016 1.869 119 120 106
1.866 8.205 1.886 114 107 65
1.840 8.205 1.885 136 129 87
1.816 8.210 1.884 98 90 53
1.793 8.220 1.885 93 83 47
-1.515 5.108 1.371 173 176 165
-1.886 4.912 1.326 161 156 150
-2.263 4.738 1.281 204 146 135
-2.498 4.726 1.261 148 28 40
-6.495 1.317 0.657 238 209 205
-7.933 0.454 0.467 103 108 104
-8.193 0.664 0.460 94 92 95
-8.423 0.901 0.456 109 110 112
-8.650 1.143 0.453 103 104 108
-8.812 1.433 0.457 91 92 97
-9.007 1.699 0.456 79 78 83
-0.691 7.354 1.613 99 109 72
-0.227 7.729 1.681 108 124 61
-0.279 7.778 1.678 107 119 57
-0.365 7.809 1.671 78 91 22
-0.416 7.862 1.669 85 94 47
-0.458 7.920 1.668 85 91 43
-0.497 7.981 1.666 91 96 55
-0.547 8.037 1.664 86 92 44
-0.599 8.094 1.661 78 86 29
-0.652 8.152 1.657 107 116 53
-0.730 8.203 1.651 100 110 39
-0.823 8.253 1.642 144 149 65
-0.903 8.310 1.635 104 110 38
-1.020 8.361 1.623 151 159 82
-1.137 8.417 1.612 101 106 24
-1.275 8.474 1.598 136 85 30
-1.553 8.513 1.567 255 240 231
-1.372 8.633 1.590 128 100 61
-2.688 8.559 1.439 97 109 73
-16.073 7.361 -0.107 75 75 83
-16.254 7.798 -0.123 72 77 83
-16.381 8.245 -0.135 71 80 79
-16.466 8.699 -0.143 74 77 84
-1.496 9.156 1.580 76 86 26
-1.439 9.244 1.586 150 164 102
-1.445 9.333 1.585 53 70 16
-1.434 9.421 1.586 63 77 24
-1.443 9.510 1.584 105 117 69
-1.442 9.600 1.583 50 63 10
-1.425 9.687 1.584 79 93 34
-1.406 9.774 1.584 71 84 28
-1.378 9.859 1.586 64 75 35
-1.361 9.946 1.585 50 64 5
-1.340 10.031 1.586 113 126 57
-1.298 10.112 1.588 86 99 30
-1.276 10.197 1.588 73 91 33
-1.253 10.282 1.587 30 47 0
-1.225 10.365 1.587 81 95 36
-1.186 10.444 1.588 94 106 42
-1.142 10.521 1.590 105 117 53
-1.098 10.598 1.591 34 45 3
-1.040 10.667 1.593 45 59 10
-0.980 10.734 1.596 79 96 42
-0.919 10.799 1.599 83 99 52
-0.887 10.879 1.598 65 79 17
-0.856 10.960 1.596 120 131 62
-0.810 11.033 1.596 87 97 45
-0.749 11.096 1.598 33 43 16
-0.695 11.163 1.599 39 53 20
-0.636 11.225 1.600 31 46 7
-0.576 11.287 1.602 21 34 8
-0.531 11.360 1.600 24 37 9
-0.469 11.419 1.601 73 91 53
-0.391 11.463 1.605 54 76 30
-0.319 11.511 1.607 58 75 33
-0.249 11.560 1.609 32 46 21
-0.177 11.605 1.611 22 38 12
-0.105 11.649 1.613 20 32 18
-0.033 11.692 1.615 22 34 20
0.036 11.738 1.616 22 36 13
-4.106 17.177 0.829 34 37 20
-5.510 19.490 0.520 46 35 29
-5.290 19.727 0.513 39 29 27
-5.050 19.938 0.508 34 29 25
-4.802 20.141 0.504 32 27 24
-4.548 20.338 0.500 31 27 26
-4.280 20.514 0.498 30 28 29
-3.986 20.644 0.502 32 32 30
-3.674 20.736 0.509 33 36 25
0.784 12.053 1.631 38 46 25
1.012 11.733 1.676 39 48 27
1.109 11.680 1.686 17 30 10
1.190 11.655 1.692 50 56 28
1.348 11.409 1.725 74 69 31
1.457 11.268 1.744 114 105 62
1.517 11.256 1.748 105 95 59
1.571 11.266 1.748 90 77 43
1.622 11.281 1.748 100 83 53
1.672 11.304 1.747 165 144 117
1.724 11.322 1.746 132 112 85
1.776 11.338 1.745 162 147 114
1.828 11.358 1.744 89 82 40
1.880 11.377 1.743 87 84 41
1.935 11.388 1.742 107 104 61
1.989 11.397 1.742 78 80 33
2.043 11.422 1.739 75 80 24
2.098 11.449 1.736 111 114 45
2.154 10.564 1.815 81 74 48
2.189 10.550 1.816 73 65 42
2.222 10.539 1.818 95 87 64
2.256 10.530 1.819 80 69 47
2.289 10.522 1.819 76 64 42
2.321 10.510 1.820 78 63 44
2.353 10.492 1.822 83 68 49
2.384 10.477 1.823 71 57 31
2.414 10.463 1.825 93 78 49
2.444 10.446 1.826 93 77 43
2.473 10.427 1.827 90 75 36
2.500 10.403 1.830 115 104 72
2.526 10.380 1.832 87 77 50
2.552 10.360 1.833 79 73 41
2.578 10.339 1.835 108 102 70
2.603 10.319 1.836 90 83 55
2.628 10.300 1.837 114 113 93
2.656 10.287 1.837 58 55 36
2.682 10.273 1.837 98 91 83
2.701 10.242 1.840 65 59 47
2.723 10.220 1.841 62 64 50
2.742 10.193 1.843 49 55 43
2.761 10.169 1.845 46 46 38
2.781 10.146 1.846 89 80 75
2.799 10.121 1.847 63 54 49
2.818 10.098 1.848 75 74 69
2.839 10.080 1.849 42 44 39
2.857 10.057 1.850 35 35 35
2.879 10.038 1.850 52 48 47
2.896 10.016 1.851 52 48 45
2.906 9.985 1.853 59 54 50
2.910 9.950 1.856 50 42 39
2.926 9.927 1.856 48 39 34
2.930 9.894 1.859 53 42 40
2.937 9.865 1.861 53 39 38
2.950 9.842 1.862 84 70 69
2.968 9.824 1.861 100 83 76
2.998 9.814 1.859 108 91 81
3.038 9.811 1.855 80 67 50
3.071 9.801 1.852 80 65 44
3.103 9.790 1.850 132 119 100
3.129 9.773 1.848 131 120 100
3.161 9.760 1.845 70 59 39
3.191 9.743 1.843 74 63 41
3.215 9.723 1.842 136 122 109
3.223 9.694 1.843 71 57 44
3.221 9.661 1.845 86 77 60
3.222 9.629 1.846 61 58 43
3.229 9.601 1.847 60 63 52
3.230 9.571 1.848 40 45 38
3.243 9.545 1.848 74 74 66
3.262 9.522 1.846 75 74 56
3.292 9.501 1.843 68 61 45
3.325 9.480 1.840 114 107 88
3.360 9.458 1.836 74 68 44
3.395 9.435 1.833 75 72 53
3.416 9.407 1.831 57 54 39
3.427 9.377 1.830 59 56 41
3.438 9.346 1.829 65 59 45
3.448 9.316 1.828 95 88 72
3.450 9.284 1.829 86 82 70
3.462 9.252 1.827 55 42 26
3.459 9.220 1.828 65 51 40
3.444 9.188 1.830 94 84 72
3.430 9.156 1.832 85 78 62
3.404 9.125 1.835 69 66 49
3.373 9.096 1.839 57 55 34
3.347 9.068 1.843 63 58 38
3.330 9.040 1.845 87 84 67
3.293 9.016 1.849 82 79 60
3.273 8.990 1.851 82 77 55
3.252 8.966 1.853 94 93 65
3.237 8.941 1.855 108 106 85
3.223 8.916 1.856 93 89 64
3.207 8.892 1.857 120 115 86
3.188 8.870 1.859 75 68 42
3.156 8.852 1.862 75 70 51
3.114 8.839 1.867 75 72 53
3.266 8.596 1.836 104 98 62
3.748 8.304 1.762 93 97 64
3.969 8.128 1.725 83 88 48
3.952 8.079 1.724 76 82 38
3.938 8.027 1.722 112 120 83
3.920 7.976 1.720 49 60 30
3.889 7.934 1.721 23 36 10
3.850 7.898 1.722 40 50 26
3.809 7.865 1.724 48 62 27
3.759 7.839 1.727 79 90 48
3.594 7.915 1.750 75 82 41
3.376 8.049 1.783 132 138 100
3.041 8.312 1.839 105 111 75
2.875 8.436 1.866 77 81 56
2.491 8.215 1.868 119 115 80
2.472 8.195 1.867 115 109 75
2.449 8.184 1.866 135 131 94
2.426 8.175 1.866 127 118 87
2.402 8.169 1.866 125 114 94
2.377 8.165 1.866 133 128 106
2.354 8.154 1.865 102 93 60
2.330 8.143 1.865 134 119 76
2.306 8.133 1.864 127 105 55
2.281 8.128 1.864 129 105 61
2.255 8.134 1.865 116 97 64
2.229 8.149 1.867 117 99 75
2.203 8.159 1.869 71 59 19
2.190 7.716 1.810 101 98 65
2.154 7.960 1.843 153 151 139
1.865 8.202 1.869 150 147 116
1.839 8.203 1.868 101 97 72
1.816 8.210 1.868 107 102 72
1.793 8.220 1.868 99 94 62
1.773 8.234 1.869 86 78 57
0.839 7.705 1.742 88 95 53
-1.744 5.062 1.256 155 153 138
-2.142 4.860 1.200 53 55 41
-2.478 4.746 1.158 153 43 54
-6.495 1.316 0.463 147 35 47
-7.941 0.447 0.245 96 103 96
-8.179 0.676 0.240 89 93 96
-8.405 0.916 0.237 120 121 125
-8.626 1.161 0.233 88 89 93
-8.785 1.452 0.239 105 106 110
-8.971 1.722 0.238 70 71 76
-0.323 7.587 1.614 115 123 86
-0.231 7.726 1.634 49 61 0
-0.289 7.772 1.630 85 99 40
-0.375 7.804 1.622 77 89 39
-0.426 7.857 1.620 44 57 1
-0.464 7.918 1.619 76 89 33
-0.494 7.982 1.619 103 114 72
-0.532 8.043 1.617 86 91 61
-0.584 8.100 1.614 112 115 62
-0.656 8.151 1.607 162 165 86
-0.731 8.203 1.600 79 86 18
-0.804 8.259 1.593 94 108 59
-0.877 8.317 1.586 88 94 48
-0.981 8.371 1.575 103 114 54
-1.079 8.430 1.564 112 123 63
-1.319 8.465 1.534 146 80 58
-1.654 8.495 1.491 240 240 214
-1.434 8.624 1.522 174 110 82
-5.026 8.270 1.048 117 128 96
-16.044 7.364 -0.407 68 71 80
-16.229 7.800 -0.427 71 76 80
-16.361 8.246 -0.441 63 70 76
-16.444 8.700 -0.449 78 82 81
-1.507 9.156 1.518 67 75 16
-1.455 9.245 1.525 79 88 31
-1.462 9.334 1.523 62 76 15
-1.449 9.422 1.524 48 59 1
-1.451 9.511 1.523 65 82 28
-1.440 9.599 1.523 81 96 41
-1.423 9.687 1.524 50 61 1
-1.410 9.774 1.524 113 124 58
-1.382 9.860 1.525 99 110 52
-1.357 9.944 1.526 120 132 70
-1.347 10.033 1.525 55 67 3
-1.319 10.117 1.526 94 106 42
-1.287 10.200 1.527 103 118 53
-1.250 10.281 1.528 54 70 25
-1.224 10.365 1.528 56 69 23
-1.199 10.449 1.527 66 78 16
-1.149 10.525 1.529 87 97 44
-1.096 10.597 1.532 99 112 59
-1.046 10.670 1.534 83 96 27
-1.000 10.744 1.535 84 101 21
-0.950 10.815 1.537 68 85 15
-0.907 10.890 1.537 105 121 58
-0.864 10.965 1.537 44 61 9
-0.802 11.028 1.539 48 62 27
-0.728 11.082 1.544 26 39 11
-0.669 11.145 1.545 29 43 8
-0.611 11.207 1.547 41 55 20
-0.546 11.264 1.549 24 36 14
-0.489 11.326 1.550 21 31 20
-0.434 11.389 1.550 24 35 21
-0.376 11.449 1.550 7 21 0
-0.317 11.509 1.551 71 86 47
-0.245 11.555 1.553 35 49 16
-0.170 11.598 1.556 0 10 0
-0.094 11.636 1.559 31 46 25
-0.021 11.677 1.562 29 44 21
0.039 11.733 1.561 30 44 18
-0.427 12.463 1.448 30 42 18
-5.512 19.493 0.306 41 35 21
-5.317 19.765 0.292 40 31 24
-5.082 19.985 0.285 29 21 19
-4.826 20.179 0.282 26 17 18
-4.568 20.371 0.279 21 15 17
-4.288 20.529 0.279 20 18 21
-3.981 20.634 0.287 21 22 24
-3.608 20.605 0.313 28 31 24
0.750 12.126 1.567 39 43 26
1.022 11.710 1.632 32 37 17
1.124 11.644 1.646 46 50 25
1.207 11.613 1.653 57 70 42
1.331 11.456 1.678 55 58 29
1.463 11.249 1.710 93 80 45
1.524 11.235 1.714 90 81 40
1.577 11.242 1.715 112 99 65
1.628 11.259 1.715 103 87 62
1.676 11.286 1.713 145 128 102
1.727 11.303 1.712 78 62 36
1.779 11.317 1.711 180 165 134
1.831 11.334 1.710 194 180 143
1.884 11.350 1.709 122 112 76
1.937 11.363 1.708 116 111 73
1.991 11.377 1.707 71 68 27
2.044 11.407 1.703 91 89 38
2.098 11.441 1.699 83 81 22
2.154 10.566 1.791 57 55 32
2.189 10.556 1.792 60 58 33
2.223 10.548 1.793 50 46 21
2.256 10.536 1.795 64 58 34
2.289 10.527 1.796 80 72 49
2.322 10.515 1.797 107 96 78
2.354 10.499 1.799 94 82 66
2.385 10.484 1.800 68 53 32
2.416 10.471 1.801 76 62 33
2.447 10.458 1.802 60 45 6
2.477 10.446 1.803 96 82 35
2.506 10.425 1.805 86 77 34
2.533 10.404 1.807 88 80 44
2.558 10.379 1.809 93 85 48
2.582 10.352 1.812 106 98 59
2.606 10.327 1.814 90 82 45
2.631 10.306 1.815 76 70 38
2.658 10.291 1.816 95 86 53
2.682 10.272 1.817 132 120 106
2.695 10.230 1.822 76 69 59
2.719 10.213 1.822 51 50 32
2.811 10.315 1.802 46 48 37
2.996 10.560 1.757 41 42 37
3.148 10.726 1.724 43 38 34
3.211 10.737 1.718 36 19 11
3.259 10.725 1.715 36 21 14
3.309 10.712 1.713 42 33 24
3.350 10.689 1.712 56 43 37
3.389 10.660 1.711 32 23 24
3.426 10.631 1.711 32 26 26
3.469 10.607 1.710 48 40 38
3.514 10.585 1.707 36 26 25
3.552 10.554 1.707 56 46 44
3.595 10.527 1.705 48 37 35
3.633 10.496 1.704 47 36 34
3.669 10.463 1.703 69 55 54
3.697 10.422 1.704 47 27 26
3.722 10.380 1.705 58 38 37
3.740 10.332 1.707 65 47 43
3.740 10.272 1.712 63 49 40
3.740 10.216 1.717 70 55 48
3.724 10.150 1.724 62 47 40
3.708 10.087 1.731 62 47 40
3.529 9.935 1.766 64 49 42
3.313 9.775 1.805 73 53 52
3.288 9.727 1.812 69 50 44
3.278 9.687 1.816 93 79 70
3.254 9.643 1.822 69 56 50
3.236 9.604 1.826 86 79 73
3.231 9.571 1.829 54 46 43
3.236 9.543 1.830 77 66 62
3.256 9.520 1.828 99 86 77
3.287 9.500 1.824 114 100 89
3.322 9.479 1.820 84 71 55
3.355 9.457 1.816 88 77 59
3.388 9.433 1.812 60 51 36
3.412 9.406 1.810 75 69 53
3.430 9.377 1.808 72 65 49
3.441 9.347 1.807 114 105 90
3.451 9.316 1.806 86 77 62
3.455 9.284 1.806 98 84 71
3.479 9.254 1.803 74 44 33
3.508 9.223 1.799 151 121 119
3.551 9.190 1.793 78 51 44
3.585 9.156 1.788 74 47 40
3.609 9.120 1.784 106 81 74
3.629 9.084 1.781 102 78 68
3.629 9.047 1.781 81 56 52
3.568 9.017 1.789 75 55 48
3.473 8.993 1.803 92 72 65
3.438 8.966 1.808 94 74 65
3.401 8.940 1.812 90 70 59
3.368 8.915 1.816 64 46 34
3.333 8.891 1.821 89 70 55
3.308 8.867 1.824 98 77 56
3.289 8.842 1.825 87 66 47
3.261 8.820 1.829 84 65 50
3.206 8.809 1.836 150 131 116
3.146 8.801 1.844 110 92 72
3.043 8.681 1.850 122 109 92
3.528 8.378 1.766 131 122 93
3.911 8.103 1.696 95 93 52
3.930 8.031 1.688 109 120 77
3.902 7.989 1.688 82 96 61
3.870 7.948 1.689 14 24 0
3.835 7.909 1.690 36 48 26
3.796 7.875 1.691 30 40 15
3.742 7.853 1.695 46 55 24
3.632 7.881 1.711 24 29 0
3.546 7.895 1.721 62 63 31
3.241 8.122 1.778 67 64 29
2.896 8.415 1.844 77 75 52
2.443 8.206 1.853 75 70 41
2.420 8.197 1.852 58 50 29
2.397 8.189 1.852 80 68 54
2.373 8.181 1.852 58 52 38
2.350 8.170 1.851 88 87 57
2.328 8.156 1.849 119 114 72
2.305 8.140 1.848 105 92 47
2.281 8.126 1.846 194 182 142
2.256 8.126 1.846 142 125 97
2.229 8.138 1.849 182 161 134
2.207 8.085 1.841 237 222 153
2.189 7.734 1.789 159 146 114
2.154 7.803 1.799 194 187 177
1.864 8.200 1.852 139 134 94
1.838 8.200 1.851 124 117 88
1.814 8.205 1.850 130 122 86
1.791 8.215 1.850 109 99 64
1.773 8.236 1.852 101 94 65
1.270 8.227 1.810 126 117 78
-1.386 5.616 1.257 175 173 150
-2.698 4.536 1.006 238 178 170
-6.820 1.023 0.203 135 54 60
-7.945 0.444 0.021 105 111 107
-8.154 0.696 0.022 85 86 91
-8.381 0.935 0.018 117 118 122
-8.597 1.182 0.014 109 110 114
-8.756 1.472 0.021 106 107 111
-8.934 1.747 0.022 67 68 73
-0.279 7.615 1.573 102 108 70
-0.243 7.719 1.585 79 87 27
-0.295 7.768 1.582 88 100 50
-0.375 7.804 1.575 67 83 34
-0.426 7.857 1.571 29 48 0
-0.460 7.920 1.571 82 95 42
-0.487 7.985 1.571 89 97 60
-0.521 8.048 1.570 117 121 88
-0.567 8.106 1.567 151 151 115
-0.630 8.160 1.561 62 60 19
-0.703 8.212 1.554 117 121 71
-0.776 8.267 1.546 65 75 2
-0.849 8.325 1.538 122 120 61
-0.968 8.374 1.522 163 161 104
-1.058 8.435 1.512 142 128 65
-1.378 8.453 1.466 189 142 126
-1.687 8.490 1.422 250 236 223
-1.475 8.618 1.456 158 69 53
-6.703 8.064 0.676 94 97 70
-16.004 7.368 -0.707 70 70 80
-16.195 7.803 -0.729 61 66 70
-16.326 8.248 -0.745 58 65 75
-16.405 8.700 -0.754 74 79 75
-1.506 9.156 1.457 76 83 41
-1.466 9.245 1.463 76 84 43
-1.476 9.334 1.461 60 75 20
-1.462 9.423 1.462 113 122 65
-1.461 9.512 1.461 52 63 5
-1.448 9.600 1.462 86 97 41
-1.432 9.688 1.462 106 115 60
-1.419 9.776 1.462 71 81 18
-1.394 9.862 1.463 81 92 34
-1.365 9.946 1.465 83 93 40
-1.349 10.034 1.464 101 112 56
-1.320 10.118 1.465 98 109 51
-1.287 10.200 1.467 146 160 101
-1.249 10.280 1.468 63 79 30
-1.219 10.363 1.468 33 51 0
-1.191 10.447 1.468 67 80 11
-1.147 10.523 1.470 47 57 0
-1.103 10.600 1.472 85 94 27
-1.065 10.679 1.472 71 83 11
-1.028 10.758 1.472 72 83 14
-0.972 10.827 1.474 51 67 20
-0.899 10.886 1.480 21 35 0
-0.839 10.950 1.482 20 33 3
-0.781 11.015 1.485 26 39 13
-0.720 11.077 1.487 44 58 23
-0.670 11.145 1.488 47 61 26
-0.604 11.202 1.490 19 31 7
-0.524 11.246 1.496 23 33 22
-0.462 11.303 1.498 19 29 20
-0.404 11.363 1.499 15 25 14
-0.355 11.431 1.498 11 22 6
-0.306 11.498 1.496 60 72 48
-0.236 11.546 1.499 63 75 55
-0.162 11.589 1.502 12 25 0
-0.079 11.620 1.507 72 88 49
-0.013 11.669 1.508 30 47 15
0.043 11.729 1.506 27 46 27
0.112 11.773 1.508 14 32 16
-5.496 19.472 0.095 43 36 30
-5.362 19.828 0.064 53 35 33
-5.127 20.053 0.056 27 23 20
-4.860 20.234 0.055 20 20 18
-4.596 20.418 0.052 16 20 19
-4.309 20.565 0.055 17 23 23
-3.971 20.617 0.072 20 26 26
-2.436 18.275 0.486 22 29 21
0.829 11.958 1.540 31 40 19
1.031 11.691 1.589 41 51 24
1.139 11.609 1.606 76 72 45
1.230 11.552 1.619 44 50 22
1.351 11.400 1.646 84 83 55
1.470 11.228 1.676 114 100 63
1.527 11.225 1.679 99 87 47
1.582 11.225 1.682 91 78 44
1.633 11.236 1.682 126 110 84
1.682 11.262 1.680 123 106 80
1.732 11.280 1.679 82 68 41
1.783 11.295 1.678 117 102 69
1.834 11.313 1.676 152 136 100
1.886 11.331 1.675 150 137 102
1.939 11.345 1.674 106 103 62
1.992 11.361 1.672 75 74 28
2.045 11.380 1.670 100 100 48
2.099 11.401 1.667 106 107 50
2.154 10.553 1.769 41 48 30
2.189 10.552 1.769 47 51 26
2.223 10.554 1.769 70 66 39
2.257 10.543 1.770 58 56 31
2.290 10.535 1.771 46 40 16
2.323 10.525 1.772 98 93 73
2.355 10.509 1.774 58 53 34
2.388 10.501 1.775 99 88 58
2.420 10.494 1.775 97 85 43
2.453 10.486 1.775 103 91 43
2.485 10.475 1.776 82 70 18
2.515 10.458 1.777 82 76 24
2.543 10.438 1.779 60 55 13
2.569 10.411 1.782 65 61 16
2.590 10.375 1.786 100 96 51
2.612 10.342 1.790 79 74 36
2.635 10.317 1.792 93 84 45
2.662 10.301 1.793 107 94 52
2.683 10.273 1.796 102 89 70
2.694 10.227 1.802 75 69 55
2.720 10.214 1.802 105 103 82
2.928 10.522 1.741 97 97 87
3.119 10.765 1.690 41 43 42
3.174 10.765 1.685 33 33 31
3.218 10.747 1.684 39 35 32
3.259 10.724 1.683 51 45 45
3.301 10.702 1.682 28 22 24
3.337 10.672 1.683 26 20 24
3.374 10.642 1.683 26 21 27
3.414 10.617 1.681 26 24 27
3.455 10.591 1.680 27 23 24
3.499 10.568 1.678 33 27 27
3.537 10.539 1.677 26 22 21
3.574 10.508 1.676 26 22 21
3.612 10.477 1.675 29 23 23
3.647 10.444 1.675 30 21 22
3.674 10.403 1.675 37 22 27
3.704 10.366 1.675 53 34 36
3.733 10.327 1.676 65 47 47
3.736 10.270 1.681 51 36 39
3.751 10.223 1.683 46 34 38
3.760 10.173 1.686 48 33 40
3.782 10.132 1.687 45 28 36
3.812 10.095 1.685 45 25 34
3.832 10.053 1.686 58 37 42
3.847 10.008 1.687 54 34 35
3.866 9.966 1.687 51 33 31
3.868 9.916 1.691 49 30 32
3.865 9.865 1.694 51 33 33
3.859 9.814 1.698 59 40 36
3.835 9.758 1.705 64 43 38
3.809 9.703 1.712 71 47 43
3.745 9.639 1.725 80 56 52
3.633 9.565 1.747 69 50 44
3.453 9.481 1.779 61 47 38
3.419 9.440 1.786 61 52 37
3.422 9.408 1.787 87 80 62
3.429 9.377 1.786 80 71 54
3.437 9.346 1.786 65 53 41
3.449 9.316 1.785 75 62 53
3.458 9.284 1.784 103 91 77
3.513 9.256 1.775 141 118 104
3.553 9.225 1.769 59 40 36
3.581 9.191 1.764 59 40 26
3.606 9.156 1.760 114 91 59
3.632 9.120 1.756 122 102 65
3.680 9.081 1.748 104 85 53
3.740 9.039 1.737 71 52 38
3.803 8.994 1.727 46 32 29
3.851 8.947 1.718 40 26 23
3.892 8.898 1.710 31 15 15
3.915 8.851 1.705 44 25 27
3.925 8.804 1.702 43 24 26
3.922 8.759 1.701 29 10 14
3.921 8.713 1.699 35 19 22
3.920 8.667 1.697 33 17 20
3.915 8.622 1.696 47 29 29
3.891 8.582 1.698 55 37 35
3.865 8.544 1.700 74 56 52
3.821 8.513 1.705 81 64 57
3.764 8.490 1.712 70 51 44
3.651 8.493 1.730 63 43 36
3.599 8.473 1.736 66 46 39
3.577 8.440 1.737 86 66 59
3.566 8.402 1.736 119 95 93
3.663 8.301 1.714 130 107 99
3.808 8.165 1.682 113 103 78
3.906 8.047 1.658 82 88 52
3.882 8.002 1.657 69 77 38
3.853 7.959 1.657 53 64 32
3.820 7.921 1.658 25 37 17
3.773 7.893 1.661 62 68 54
3.710 7.880 1.668 41 48 32
3.603 7.906 1.684 49 50 32
3.441 7.990 1.713 86 80 58
3.020 8.332 1.803 126 111 88
2.902 8.409 1.826 116 103 84
2.858 8.417 1.832 137 124 105
2.823 8.418 1.836 123 108 85
2.687 8.314 1.836 188 176 152
2.666 8.303 1.836 99 87 61
2.325 8.171 1.835 90 66 40
2.304 8.147 1.832 91 66 36
2.282 8.124 1.828 114 94 70
2.257 8.115 1.827 98 86 70
2.231 8.112 1.827 81 65 50
2.221 7.796 1.775 218 211 120
2.188 7.804 1.777 96 88 75
2.154 7.715 1.762 237 233 224
1.891 8.203 1.837 120 110 57
1.864 8.197 1.835 118 112 60
1.838 8.198 1.833 151 141 105
1.813 8.202 1.833 121 109 69
1.789 8.209 1.832 148 135 100
1.769 8.227 1.834 117 108 67
1.752 8.249 1.836 120 117 72
1.731 8.262 1.837 107 106 62
1.436 8.438 1.832 133 129 92
-1.716 5.472 1.118 102 86 63
-7.399 0.498 -0.129 219 191 188
-7.919 0.467 -0.196 114 126 122
-8.132 0.714 -0.197 87 85 90
-8.348 0.960 -0.199 148 149 153
-8.561 1.209 -0.203 96 97 101
-8.717 1.499 -0.195 62 63 67
-8.889 1.777 -0.193 36 37 41
-0.277 7.616 1.525 106 113 72
-0.255 7.712 1.536 111 120 57
-0.300 7.766 1.534 86 98 48
-0.378 7.803 1.526 120 139 83
-0.426 7.857 1.523 99 115 52
-0.451 7.924 1.524 76 85 40
-0.479 7.989 1.524 68 72 37
-0.519 8.049 1.522 120 127 75
-0.559 8.110 1.520 66 71 31
-0.607 8.168 1.516 40 44 11
-0.677 8.221 1.508 100 107 53
-0.757 8.273 1.498 143 151 66
-0.826 8.331 1.489 86 88 41
-0.962 8.376 1.470 162 165 122
-1.070 8.432 1.454 117 79 42
-1.483 8.432 1.388 255 238 224
-1.666 8.493 1.360 255 252 246
-1.583 8.602 1.376 255 207 195
-6.212 8.124 0.608 91 72 55
-15.960 7.372 -1.005 70 67 78
-16.155 7.805 -1.031 60 65 69
-16.282 8.250 -1.048 63 69 81
-16.352 8.702 -1.056 75 79 80
-1.491 9.156 1.398 48 56 32
-1.460 9.245 1.403 26 36 9
-1.475 9.334 1.400 40 54 3
-1.465 9.423 1.401 88 97 40
-1.467 9.513 1.399 52 60 3
-1.455 9.601 1.400 57 65 16
-1.438 9.689 1.400 58 67 22
-1.418 9.776 1.401 110 121 65
-1.394 9.862 1.403 92 102 50
-1.364 9.946 1.405 81 91 41
-1.341 10.032 1.405 45 55 5
-1.312 10.115 1.406 68 78 26
-1.283 10.199 1.407 70 82 36
-1.254 10.282 1.407 57 73 24
-1.226 10.366 1.407 52 72 0
-1.189 10.446 1.408 106 120 45
-1.148 10.524 1.410 73 80 10
-1.108 10.602 1.411 99 109 38
-1.068 10.680 1.412 63 73 10
-1.025 10.757 1.412 99 107 60
-0.942 10.811 1.420 23 36 8
-0.870 10.869 1.426 18 33 4
-0.816 10.936 1.428 62 77 36
-0.770 11.008 1.429 51 65 14
-0.721 11.077 1.429 59 76 24
-0.665 11.142 1.431 8 22 0
-0.569 11.176 1.440 15 26 10
-0.499 11.227 1.444 17 26 21
-0.440 11.285 1.446 18 28 19
-0.386 11.347 1.446 13 24 10
-0.337 11.414 1.445 14 25 11
-0.287 11.481 1.443 19 29 18
-0.223 11.533 1.445 27 38 30
-0.151 11.577 1.448 58 72 37
-0.075 11.616 1.452 34 51 0
-0.006 11.660 1.454 38 51 21
0.061 11.707 1.455 31 39 24
0.118 11.765 1.454 8 16 1
-5.632 19.655 -0.158 96 76 67
-5.443 19.944 -0.178 77 44 35
-5.186 20.142 -0.181 40 26 23
-4.905 20.303 -0.178 25 17 15
-4.633 20.479 -0.180 18 14 13
-4.339 20.618 -0.175 27 25 26
-3.346 19.446 0.074 20 26 24
0.649 12.146 1.447 19 29 20
0.875 11.861 1.506 24 36 16
1.030 11.692 1.542 40 53 23
1.148 11.585 1.566 76 72 47
1.247 11.509 1.584 50 53 24
1.364 11.366 1.613 75 69 37
1.472 11.223 1.641 103 88 47
1.526 11.227 1.643 94 80 41
1.582 11.224 1.646 102 88 53
1.637 11.223 1.648 110 95 62
1.686 11.241 1.647 112 98 71
1.736 11.258 1.646 120 109 81
1.787 11.276 1.645 117 102 69
1.837 11.296 1.643 87 71 35
1.888 11.316 1.641 144 131 96
1.940 11.331 1.639 127 126 82
1.993 11.348 1.637 70 72 25
2.046 11.364 1.635 54 56 7
2.100 11.369 1.634 66 68 18
2.154 10.544 1.747 34 45 31
2.188 10.546 1.747 42 44 23
2.223 10.561 1.744 47 37 10
2.257 10.543 1.747 56 50 28
2.291 10.539 1.747 51 47 22
2.324 10.532 1.748 59 61 40
2.357 10.523 1.749 72 75 46
2.392 10.525 1.747 77 70 18
2.427 10.525 1.746 103 97 35
2.460 10.516 1.746 112 103 46
2.491 10.499 1.748 88 78 27
2.520 10.477 1.751 99 92 48
2.549 10.457 1.753 74 72 34
2.575 10.429 1.756 61 59 21
2.596 10.392 1.761 43 40 5
2.618 10.357 1.766 79 75 48
2.640 10.328 1.769 59 55 30
2.666 10.311 1.770 66 59 30
2.686 10.280 1.774 99 90 73
2.698 10.236 1.780 75 70 50
2.723 10.220 1.780 118 118 92
2.932 10.529 1.713 34 36 25
3.107 10.746 1.663 33 36 41
3.156 10.737 1.659 26 26 28
3.194 10.712 1.660 22 28 26
3.226 10.678 1.661 18 19 21
3.261 10.648 1.662 26 24 29
3.298 10.621 1.662 28 27 33
3.334 10.594 1.662 20 21 26
3.374 10.570 1.660 22 21 27
3.414 10.545 1.659 23 21 26
3.452 10.519 1.658 36 31 35
3.484 10.485 1.658 27 29 28
3.519 10.455 1.657 23 25 24
3.557 10.427 1.656 25 25 25
3.598 10.401 1.653 26 26 26
3.634 10.370 1.652 31 25 29
3.697 10.360 1.644 48 34 34
3.724 10.320 1.644 49 31 29
3.710 10.251 1.654 32 23 28
3.721 10.203 1.657 31 29 32
3.741 10.161 1.658 31 27 28
3.771 10.125 1.657 41 32 35
3.792 10.084 1.657 43 31 35
3.810 10.041 1.658 54 39 42
3.833 10.001 1.658 64 48 48
3.852 9.959 1.658 58 43 38
3.857 9.911 1.661 60 44 45
3.852 9.859 1.666 65 47 47
3.845 9.808 1.670 58 41 34
3.838 9.759 1.675 59 42 34
3.831 9.710 1.679 57 39 35
3.821 9.662 1.683 55 34 31
3.717 9.589 1.705 59 39 38
3.562 9.509 1.736 59 44 41
3.455 9.448 1.757 47 39 26
3.433 9.410 1.763 82 75 56
3.429 9.377 1.765 69 60 43
3.434 9.346 1.765 55 43 31
3.445 9.315 1.763 85 70 63
3.452 9.284 1.763 80 70 61
3.514 9.256 1.752 102 85 75
3.532 9.224 1.749 54 43 37
3.552 9.190 1.746 86 74 48
3.570 9.156 1.742 139 126 71
3.590 9.121 1.739 151 143 81
3.612 9.084 1.734 132 126 78
3.672 9.044 1.723 83 76 60
3.750 8.999 1.708 58 52 52
3.807 8.952 1.697 72 66 66
3.865 8.902 1.685 63 53 52
3.899 8.853 1.678 41 27 26
3.904 8.808 1.675 40 26 23
3.909 8.762 1.673 33 21 23
3.914 8.715 1.670 37 26 32
3.921 8.667 1.666 33 24 27
3.920 8.621 1.664 38 29 30
3.906 8.577 1.664 38 29 32
3.882 8.538 1.666 44 35 38
3.848 8.503 1.670 43 34 37
3.806 8.472 1.675 42 33 36
3.775 8.438 1.678 40 29 33
3.753 8.400 1.678 52 40 44
3.735 8.360 1.678 43 28 33
3.726 8.316 1.676 49 37 41
3.727 8.265 1.671 60 45 48
3.746 8.202 1.662 51 37 34
3.831 8.094 1.639 62 53 44
3.863 8.015 1.626 50 51 19
3.845 7.966 1.624 68 77 46
3.810 7.928 1.625 47 60 42
3.761 7.902 1.629 26 29 20
3.702 7.886 1.636 29 30 24
3.636 7.878 1.644 29 28 23
3.568 7.875 1.653 35 26 21
3.462 7.911 1.672 39 24 21
3.306 8.005 1.704 30 16 13
3.233 8.023 1.715 36 23 17
3.207 7.995 1.715 30 17 11
3.153 7.998 1.722 54 39 34
3.110 7.991 1.726 106 88 76
3.072 7.981 1.729 92 72 61
3.039 7.964 1.730 79 57 46
3.014 7.936 1.728 119 96 82
2.987 7.910 1.727 165 131 122
2.974 7.862 1.721 216 177 172
2.935 7.854 1.724 139 100 93
2.891 7.856 1.728 130 92 83
2.827 7.898 1.740 143 100 83
2.778 7.917 1.748 183 136 126
2.729 7.942 1.756 211 166 147
2.660 8.015 1.773 160 118 96
2.590 8.103 1.793 110 80 69
2.536 8.166 1.807 118 91 74
2.496 8.202 1.816 144 116 95
2.325 8.175 1.819 185 167 143
2.304 8.144 1.814 89 74 45
2.283 8.116 1.809 79 71 50
2.258 8.100 1.807 88 73 52
2.233 8.090 1.806 106 78 77
2.223 7.756 1.745 193 180 84
2.188 7.781 1.750 163 155 152
2.154 7.816 1.756 218 218 206
1.866 8.204 1.819 99 87 45
1.840 8.206 1.818 144 131 99
1.816 8.209 1.817 120 106 67
1.791 8.215 1.816 148 133 94
1.772 8.232 1.818 105 91 52
1.753 8.250 1.820 103 91 49
1.731 8.261 1.820 108 101 57
-0.853 6.293 1.245 90 93 62
-7.479 0.425 -0.366 129 121 119
-7.876 0.504 -0.410 90 105 102
-8.091 0.748 -0.412 107 105 108
-8.308 0.991 -0.415 87 88 92
-8.518 1.241 -0.418 69 70 74
-8.671 1.532 -0.409 76 77 81
-8.840 1.810 -0.406 57 58 62
-0.267 7.623 1.479 113 120 79
-0.257 7.711 1.489 90 100 31
-0.300 7.766 1.487 87 102 37
-0.377 7.803 1.478 58 71 15
-0.422 7.859 1.475 80 91 35
-0.446 7.926 1.477 63 71 32
-0.477 7.990 1.476 88 95 51
-0.520 8.048 1.473 112 119 65
-0.559 8.109 1.471 87 97 47
-0.607 8.168 1.466 110 124 71
-0.672 8.222 1.458 112 123 55
-0.742 8.278 1.449 128 128 42
-0.801 8.338 1.442 71 73 24
-1.001 8.366 1.408 103 116 47
-1.198 8.403 1.375 223 173 136
-1.563 8.417 1.310 95 84 64
-1.732 8.482 1.282 96 88 77
-1.779 8.573 1.276 235 221 194
-7.709 7.940 0.192 96 63 54
-15.922 7.376 -1.305 62 71 76
-16.113 7.809 -1.333 60 65 69
-16.238 8.253 -1.351 63 69 81
-16.292 8.703 -1.358 78 82 85
-1.463 9.156 1.342 31 40 21
-1.439 9.244 1.346 18 32 6
-1.460 9.334 1.342 80 97 42
-1.456 9.422 1.341 71 81 21
-1.456 9.512 1.340 28 42 0
-1.443 9.600 1.340 40 54 18
-1.428 9.687 1.341 48 59 27
-1.406 9.774 1.343 69 81 33
-1.380 9.859 1.344 52 62 10
-1.354 9.944 1.346 77 87 37
-1.334 10.030 1.346 77 87 35
-1.301 10.112 1.348 78 88 35
-1.272 10.195 1.349 80 92 42
-1.247 10.280 1.348 66 80 44
-1.222 10.364 1.347 71 87 40
-1.188 10.446 1.348 81 93 31
-1.143 10.522 1.351 81 90 35
-1.099 10.598 1.352 67 75 24
-1.050 10.671 1.355 44 55 12
-0.988 10.738 1.360 26 39 9
-0.905 10.791 1.369 15 30 9
-0.858 10.863 1.370 17 33 4
-0.822 10.940 1.369 48 64 17
-0.781 11.015 1.368 59 73 11
-0.737 11.088 1.367 84 99 40
-0.652 11.133 1.375 38 52 16
-0.542 11.156 1.389 19 30 16
-0.474 11.207 1.393 23 34 20
-0.419 11.268 1.394 22 32 21
-0.367 11.331 1.394 29 40 24
-0.319 11.398 1.393 34 45 28
-0.265 11.459 1.392 13 24 10
-0.203 11.514 1.393 24 37 19
-0.144 11.570 1.393 36 50 17
-0.060 11.599 1.400 66 78 40
-0.176 11.857 1.351 45 53 32
-4.104 16.782 0.205 44 45 39
-6.182 19.839 -0.466 37 40 31
-5.889 20.001 -0.457 35 21 18
-5.588 20.150 -0.447 52 34 30
-5.303 20.317 -0.442 50 39 35
-5.015 20.477 -0.438 47 36 34
-4.748 20.673 -0.443 37 29 27
-4.490 20.885 -0.453 51 47 46
-3.887 20.458 -0.332 37 40 33
-1.077 15.576 0.692 47 52 46
0.827 11.962 1.435 36 41 34
1.042 11.665 1.501 31 38 22
1.160 11.556 1.527 53 58 35
1.260 11.474 1.548 38 49 19
1.379 11.322 1.581 48 42 6
1.472 11.222 1.604 115 98 55
1.526 11.226 1.606 110 94 58
1.583 11.220 1.610 109 94 55
1.639 11.213 1.614 94 82 44
1.689 11.229 1.613 104 93 63
1.740 11.242 1.613 88 77 49
1.790 11.258 1.612 130 115 82
1.840 11.278 1.610 115 99 63
1.890 11.299 1.607 90 77 42
1.942 11.314 1.605 86 81 41
1.994 11.326 1.604 73 70 29
2.047 11.337 1.603 53 49 11
2.101 11.334 1.604 73 69 34
2.154 10.533 1.726 36 36 26
2.188 10.539 1.725 30 41 24
2.223 10.559 1.721 55 38 0
2.256 10.536 1.725 36 36 24
2.290 10.536 1.724 59 63 28
2.325 10.537 1.723 67 72 42
2.359 10.539 1.722 70 73 30
2.396 10.548 1.719 124 114 52
2.431 10.544 1.718 76 70 10
2.463 10.532 1.720 89 83 33
2.493 10.510 1.722 67 62 20
2.522 10.484 1.726 58 60 23
2.550 10.462 1.729 55 59 24
2.577 10.436 1.732 38 40 18
2.601 10.403 1.737 60 63 36
2.622 10.370 1.741 33 36 9
2.644 10.338 1.745 54 55 47
2.669 10.318 1.747 44 40 15
2.689 10.288 1.751 86 77 62
2.706 10.252 1.756 54 55 39
2.733 10.238 1.756 79 81 60
2.857 10.397 1.716 39 42 33
3.098 10.731 1.635 29 30 32
3.145 10.721 1.632 40 36 37
3.175 10.684 1.635 40 40 38
3.197 10.636 1.640 37 36 31
3.238 10.617 1.638 61 58 53
3.274 10.591 1.638 34 32 33
3.301 10.553 1.641 36 42 40
3.343 10.534 1.638 29 35 33
3.382 10.511 1.636 39 39 41
3.414 10.480 1.637 42 38 39
3.425 10.427 1.642 42 46 49
3.450 10.389 1.644 27 32 35
3.470 10.349 1.647 29 30 32
3.506 10.322 1.645 42 40 41
3.551 10.302 1.641 44 40 37
3.690 10.354 1.613 53 33 32
3.710 10.310 1.615 45 30 27
3.636 10.199 1.640 50 46 45
3.625 10.139 1.648 43 39 40
3.587 10.063 1.663 27 28 22
3.575 10.008 1.671 36 41 34
3.708 10.036 1.645 78 74 71
3.717 9.991 1.648 36 31 27
3.600 9.884 1.678 152 145 126
3.696 9.885 1.661 95 83 71
3.817 9.893 1.638 59 43 43
3.747 9.816 1.657 67 53 42
3.531 9.687 1.706 77 64 45
3.478 9.630 1.720 156 144 122
3.635 9.645 1.690 87 78 61
3.693 9.623 1.680 69 41 38
3.605 9.558 1.701 70 49 48
3.511 9.496 1.722 47 49 38
3.458 9.449 1.734 56 53 34
3.436 9.411 1.740 92 82 55
3.428 9.377 1.743 59 58 28
3.436 9.346 1.742 67 52 33
3.446 9.315 1.741 80 59 56
3.446 9.283 1.742 51 40 36
3.483 9.254 1.735 99 73 72
3.520 9.223 1.728 51 37 26
3.540 9.190 1.724 106 99 73
3.561 9.156 1.720 137 122 81
3.579 9.121 1.717 140 133 89
3.590 9.086 1.714 125 122 91
3.612 9.049 1.709 76 67 60
3.655 9.008 1.700 58 43 40
3.679 8.968 1.695 67 58 51
3.736 8.921 1.682 66 46 45
3.801 8.870 1.668 30 15 10
3.793 8.830 1.668 72 51 46
3.729 8.802 1.679 103 81 70
3.718 8.764 1.679 172 144 132
3.780 8.706 1.664 114 97 87
3.800 8.657 1.658 87 80 61
3.843 8.598 1.646 43 33 23
3.837 8.554 1.644 51 33 0
3.801 8.521 1.649 45 28 38
3.741 8.499 1.658 36 31 28
3.635 8.500 1.678 91 86 80
3.622 8.462 1.677 71 65 53
3.618 8.419 1.674 70 61 52
3.666 8.348 1.659 80 73 63
3.677 8.293 1.652 64 44 43
3.679 8.242 1.646 76 56 58
3.720 8.165 1.631 36 26 25
3.784 8.067 1.610 38 29 24
3.807 7.992 1.598 68 64 52
3.789 7.944 1.595 30 31 13
3.744 7.915 1.599 44 44 32
3.685 7.900 1.606 18 13 10
3.628 7.885 1.613 29 20 21
3.567 7.876 1.621 27 17 25
3.518 7.858 1.625 23 13 24
3.474 7.836 1.629 25 19 19
3.431 7.815 1.632 22 13 18
3.387 7.796 1.635 49 37 37
3.353 7.766 1.635 28 24 23
3.316 7.740 1.636 31 21 29
3.281 7.712 1.636 54 53 61
3.241 7.691 1.637 39 31 46
3.198 7.674 1.640 54 45 28
3.155 7.659 1.642 38 31 38
3.115 7.640 1.643 52 46 46
3.079 7.614 1.642 41 36 33
3.041 7.591 1.642 50 45 42
2.999 7.576 1.644 33 27 31
2.956 7.564 1.645 48 37 45
2.915 7.548 1.646 48 33 38
2.877 7.527 1.645 44 33 37
2.837 7.509 1.645 48 33 28
2.793 7.499 1.647 46 28 28
2.750 7.490 1.648 44 26 22
2.706 7.487 1.650 38 18 17
2.659 7.491 1.654 40 22 20
2.614 7.494 1.657 46 28 26
2.566 7.514 1.663 52 32 31
2.515 7.550 1.673 82 61 60
2.468 7.582 1.681 72 47 43
2.422 7.613 1.688 89 54 50
2.376 7.664 1.700 128 95 86
2.334 7.699 1.708 155 122 113
2.291 7.765 1.722 148 110 99
2.254 7.804 1.730 138 101 93
2.231 7.591 1.688 228 185 90
2.193 7.602 1.691 215 198 191
2.154 7.701 1.711 196 174 161
2.130 8.167 1.803 160 127 110
1.869 8.216 1.805 126 110 76
1.843 8.215 1.803 140 124 91
1.819 8.219 1.802 98 79 47
1.796 8.227 1.802 82 65 35
1.776 8.243 1.804 97 76 49
1.756 8.257 1.804 147 124 80
1.734 8.267 1.804 104 93 65
-1.099 6.058 1.106 71 72 40
-7.488 0.417 -0.589 107 109 106
-7.822 0.550 -0.621 104 110 110
-8.040 0.790 -0.623 91 91 93
-8.259 1.030 -0.627 86 85 90
-8.463 1.282 -0.629 71 71 73
-8.617 1.570 -0.621 62 62 62
-8.788 1.845 -0.618 66 67 69
-0.245 7.637 1.435 88 97 54
-0.244 7.718 1.444 118 127 70
-0.290 7.772 1.441 96 107 49
-0.360 7.812 1.433 89 93 42
-0.400 7.870 1.431 42 49 7
-0.431 7.933 1.431 52 67 26
-0.466 7.995 1.430 99 113 60
-0.503 8.055 1.428 67 76 33
-0.542 8.116 1.425 53 65 15
-0.592 8.173 1.420 71 88 34
-0.653 8.229 1.412 67 81 20
-0.713 8.286 1.404 108 110 27
-0.762 8.349 1.398 107 129 47
-1.064 8.350 1.340 155 163 88
-1.231 8.396 1.310 151 65 30
-1.425 8.444 1.274 158 26 21
-1.607 8.503 1.241 190 44 63
-1.647 8.592 1.236 179 60 52
-11.129 7.518 -0.662 166 84 98
-15.871 7.381 -1.603 70 67 74
-16.055 7.813 -1.632 57 65 67
-16.182 8.255 -1.652 62 65 80
-16.220 8.705 -1.656 74 78 81
-1.426 9.156 1.288 34 48 25
-1.412 9.244 1.290 40 55 22
-1.437 9.332 1.285 60 74 25
-1.437 9.421 1.284 125 137 75
-1.435 9.510 1.283 90 106 59
-1.419 9.597 1.284 23 41 3
-1.404 9.684 1.284 45 61 25
-1.374 9.768 1.288 40 55 16
-1.360 9.855 1.287 64 77 31
-1.338 9.940 1.288 36 48 2
-1.314 10.025 1.289 84 96 50
-1.277 10.106 1.292 85 97 51
-1.247 10.188 1.293 57 74 29
-1.219 10.270 1.293 43 60 16
-1.194 10.354 1.293 34 48 0
-1.166 10.437 1.292 76 87 27
-1.118 10.511 1.295 40 52 2
-1.072 10.586 1.298 60 74 25
-1.012 10.654 1.303 83 96 53
-0.936 10.712 1.312 39 51 27
-0.872 10.774 1.317 19 31 19
-0.837 10.851 1.316 26 39 22
-0.813 10.934 1.312 30 43 17
-0.780 11.014 1.309 85 99 63
-0.717 11.075 1.313 57 70 40
-0.581 11.083 1.334 30 42 22
-0.497 11.122 1.343 25 36 22
-0.444 11.184 1.344 26 37 23
-0.394 11.247 1.344 33 40 32
-0.347 11.313 1.343 24 35 19
-0.297 11.378 1.342 27 40 20
-0.243 11.439 1.341 30 42 28
-0.192 11.502 1.340 19 27 14
-0.148 11.574 1.336 32 38 24
-5.945 18.092 -0.399 50 56 44
-6.727 19.451 -0.705 32 35 28
-6.500 19.701 -0.714 31 33 28
-6.274 19.956 -0.725 27 32 28
-6.017 20.173 -0.728 19 20 22
-5.728 20.348 -0.723 17 18 22
-5.442 20.524 -0.720 25 27 26
-5.167 20.718 -0.722 21 21 19
-4.898 20.923 -0.729 15 17 16
-4.621 21.116 -0.734 23 25 24
-4.332 21.292 -0.737 28 30 27
-4.054 21.490 -0.747 35 37 34
-3.769 21.679 -0.756 33 35 32
-3.351 21.577 -0.702 43 46 39
1.034 11.860 1.418 33 40 22
1.286 11.407 1.520 65 66 34
1.395 11.277 1.552 90 77 35
1.479 11.201 1.572 105 92 48
1.532 11.208 1.573 116 103 61
1.587 11.206 1.577 119 106 64
1.642 11.200 1.581 158 144 105
1.693 11.213 1.581 102 87 56
1.743 11.227 1.580 83 73 46
1.792 11.242 1.579 108 97 69
1.842 11.262 1.577 95 80 47
1.893 11.278 1.575 123 107 74
1.944 11.292 1.573 134 124 88
1.996 11.300 1.572 94 86 47
2.049 11.306 1.572 70 62 26
2.102 11.296 1.574 99 90 57
2.154 10.526 1.704 44 37 27
2.188 10.536 1.702 24 37 20
2.223 10.561 1.696 83 62 9
2.256 10.535 1.701 55 55 45
2.290 10.535 1.701 57 56 35
2.325 10.539 1.699 45 43 28
2.361 10.552 1.695 61 58 23
2.397 10.557 1.693 88 78 25
2.431 10.546 1.694 103 95 48
2.463 10.532 1.695 90 81 38
2.495 10.515 1.697 68 62 26
2.524 10.491 1.701 72 73 41
2.553 10.470 1.704 55 57 35
2.582 10.449 1.706 21 21 13
2.611 10.433 1.707 35 36 20
2.633 10.396 1.713 35 37 13
2.652 10.358 1.719 43 46 27
2.675 10.332 1.722 49 48 20
2.697 10.304 1.726 68 61 53
2.717 10.273 1.730 28 27 32
2.746 10.262 1.729 37 39 26
2.809 10.312 1.713 87 89 78
3.094 10.723 1.605 30 30 28
3.142 10.715 1.601 63 59 58
3.162 10.664 1.608 50 48 49
3.171 10.600 1.619 46 47 42
3.218 10.591 1.614 44 44 36
3.254 10.565 1.614 38 34 31
3.276 10.523 1.618 38 37 35
3.316 10.503 1.616 32 33 35
3.354 10.480 1.614 12 13 18
3.379 10.443 1.616 14 15 19
3.377 10.378 1.627 36 37 39
3.382 10.324 1.634 35 37 36
3.374 10.262 1.644 38 42 41
3.394 10.225 1.646 37 42 38
3.438 10.210 1.641 42 43 35
3.692 10.356 1.579 55 36 32
3.691 10.296 1.587 48 35 29
3.586 10.164 1.622 42 41 39
3.575 10.105 1.631 34 28 28
3.530 10.027 1.648 29 30 24
3.487 9.955 1.664 45 51 41
3.670 10.014 1.624 51 46 43
3.585 9.921 1.650 53 49 40
3.468 9.817 1.682 48 42 16
3.545 9.814 1.668 101 85 70
3.795 9.884 1.612 33 19 18
3.524 9.723 1.680 89 78 60
3.411 9.641 1.709 141 131 104
3.421 9.609 1.709 132 125 96
3.508 9.603 1.692 71 61 36
3.642 9.607 1.664 59 57 44
3.569 9.547 1.683 68 59 54
3.506 9.495 1.699 57 40 33
3.473 9.452 1.708 63 50 34
3.451 9.414 1.714 122 111 93
3.451 9.381 1.716 120 108 86
3.457 9.349 1.716 133 106 89
3.458 9.317 1.716 80 63 55
3.457 9.284 1.717 64 55 38
3.488 9.254 1.711 66 28 19
3.521 9.223 1.704 58 50 37
3.542 9.190 1.700 71 72 64
3.559 9.156 1.697 79 66 47
3.567 9.121 1.695 138 144 110
3.574 9.086 1.693 94 79 58
3.574 9.051 1.693 86 66 59
3.611 9.013 1.684 132 124 113
3.638 8.973 1.677 143 147 130
3.680 8.930 1.667 56 37 30
3.719 8.885 1.657 126 95 93
3.705 8.848 1.659 57 26 23
3.578 8.836 1.685 144 118 105
3.450 8.831 1.711 146 130 107
3.412 8.808 1.718 90 77 61
3.389 8.782 1.721 158 150 113
3.369 8.755 1.724 83 73 38
3.557 8.654 1.678 211 192 115
3.758 8.537 1.629 95 75 64
3.468 8.612 1.693 38 31 21
3.283 8.656 1.733 66 58 45
3.247 8.639 1.739 86 77 60
3.228 8.616 1.740 97 86 68
3.285 8.552 1.723 68 56 32
3.535 8.374 1.657 84 55 37
3.474 8.365 1.668 178 159 145
3.427 8.350 1.675 32 28 16
3.312 8.382 1.699 72 62 61
3.287 8.359 1.701 41 31 21
3.352 8.268 1.678 135 124 102
3.367 8.210 1.668 65 53 31
3.532 8.025 1.615 129 114 95
3.269 8.194 1.682 122 109 90
3.109 8.291 1.722 87 74 55
3.075 8.279 1.725 107 96 78
3.093 8.218 1.713 66 60 48
3.273 7.981 1.649 76 61 64
3.222 7.979 1.657 71 53 49
3.077 8.087 1.695 129 119 109
3.030 8.089 1.702 83 70 61
2.993 8.081 1.705 128 129 115
3.038 7.964 1.680 98 90 79
3.103 7.809 1.644 205 195 136
3.055 7.808 1.650 103 89 80
3.025 7.781 1.649 86 73 65
3.002 7.742 1.644 74 64 62
2.974 7.710 1.641 31 25 27
2.927 7.710 1.646 47 41 41
2.889 7.696 1.647 53 43 44
2.865 7.653 1.641 48 36 38
2.832 7.627 1.639 24 15 16
2.795 7.610 1.639 24 21 16
2.758 7.592 1.638 24 17 24
2.721 7.572 1.637 30 24 24
2.680 7.566 1.638 25 19 19
2.636 7.568 1.642 25 20 24
2.594 7.566 1.644 27 23 24
2.550 7.577 1.648 29 23 25
2.502 7.608 1.657 28 19 22
2.459 7.622 1.662 33 29 30
2.419 7.630 1.666 45 30 35
2.381 7.626 1.666 54 48 52
2.343 7.624 1.667 46 41 45
2.305 7.630 1.669 50 36 36
2.270 7.595 1.662 55 42 34
2.234 7.538 1.650 197 167 79
2.196 7.477 1.637 203 204 196
2.154 7.429 1.627 45 36 39
2.111 7.380 1.616 44 28 29
2.068 7.396 1.619 42 21 20
2.025 7.402 1.620 35 17 17
1.982 7.406 1.620 41 22 18
1.940 7.417 1.621 31 11 4
1.899 7.436 1.625 67 47 38
1.863 7.475 1.632 60 40 31
1.833 7.542 1.644 109 75 66
1.802 7.589 1.653 129 91 80
1.772 7.631 1.660 125 85 73
1.749 7.691 1.672 170 128 114
1.801 7.991 1.737 146 115 95
1.798 8.078 1.755 130 102 80
1.803 8.174 1.775 165 137 115
1.791 8.214 1.782 112 80 59
1.775 8.240 1.786 115 88 69
1.756 8.257 1.788 122 89 56
1.735 8.270 1.788 72 49 35
1.480 8.448 1.789 130 111 81
1.423 8.425 1.777 124 110 71
-1.293 5.874 0.972 125 121 94
-7.448 0.453 -0.799 91 96 90
-7.766 0.598 -0.830 107 108 110
-7.994 0.828 -0.835 74 73 78
-8.215 1.064 -0.841 77 76 81
-8.416 1.317 -0.842 80 80 82
-8.568 1.605 -0.832 80 80 80
-8.742 1.875 -0.830 69 71 68
-0.197 7.667 1.399 90 99 52
-0.207 7.740 1.405 102 113 57
-0.259 7.789 1.401 108 119 63
-0.322 7.833 1.394 81 88 44
-0.357 7.892 1.393 46 53 19
-0.384 7.956 1.394 36 47 17
-0.418 8.016 1.392 50 59 28
-0.450 8.077 1.391 32 39 8
-0.490 8.136 1.388 68 82 33
-0.542 8.191 1.382 75 92 38
-0.604 8.245 1.372 77 91 29
-0.668 8.300 1.363 99 106 29
-0.709 8.364 1.358 116 111 56
-1.067 8.349 1.283 230 219 187
-0.944 8.460 1.314 139 139 89
-0.880 8.552 1.332 57 60 0
-1.083 8.594 1.290 117 110 81
-1.060 8.679 1.298 84 82 44
-12.685 7.326 -1.229 49 61 47
-15.823 7.385 -1.902 58 70 70
-15.999 7.817 -1.931 57 65 68
-16.120 8.258 -1.952 61 64 79
-16.165 8.706 -1.958 72 76 77
-1.368 9.156 1.239 59 67 28
-1.383 9.243 1.236 63 72 25
-1.412 9.331 1.229 88 98 45
-1.413 9.419 1.227 89 102 46
-1.405 9.507 1.228 46 61 18
-1.381 9.592 1.231 36 50 14
-1.362 9.678 1.232 31 45 10
-1.334 9.761 1.235 41 55 22
-1.325 9.848 1.234 36 48 12
-1.306 9.933 1.234 51 63 25
-1.277 10.016 1.236 40 52 16
-1.234 10.094 1.241 24 35 1
-1.205 10.175 1.242 34 49 20
-1.177 10.257 1.242 44 59 30
-1.156 10.340 1.241 35 46 16
-1.130 10.423 1.240 58 67 36
-1.087 10.499 1.242 27 37 3
-1.040 10.572 1.245 63 75 35
-0.974 10.635 1.253 54 66 28
-0.899 10.693 1.262 30 40 16
-0.836 10.754 1.268 19 30 14
-0.776 10.816 1.273 24 35 19
-0.730 10.885 1.274 23 35 13
-0.690 10.957 1.273 45 58 30
-0.597 10.994 1.285 25 37 17
-0.503 11.027 1.298 15 26 10
-0.450 11.088 1.300 25 36 22
-0.408 11.156 1.298 18 28 17
-0.363 11.222 1.297 17 24 17
-0.322 11.292 1.294 16 27 11
-0.276 11.359 1.292 29 41 19
-0.227 11.423 1.290 10 22 8
-0.130 11.440 1.302 22 27 20
-7.076 18.851 -0.891 36 39 32
-7.029 19.288 -0.953 30 32 27
-6.783 19.517 -0.955 31 33 30
-6.555 19.769 -0.965 32 34 31
-6.316 20.010 -0.974 19 21 18
-6.060 20.232 -0.978 18 20 19
-5.783 20.427 -0.977 20 21 23
-5.503 20.616 -0.977 18 20 19
-5.223 20.807 -0.978 22 24 23
-4.949 21.006 -0.984 25 27 26
-4.664 21.192 -0.988 26 28 27
-4.366 21.354 -0.987 29 31 30
-4.079 21.540 -0.994 33 35 34
-3.785 21.714 -1.000 33 35 32
-3.496 21.903 -1.011 37 39 34
-3.107 21.859 -0.970 45 51 39
1.294 11.387 1.483 164 160 133
1.413 11.228 1.525 255 236 194
1.490 11.168 1.542 137 115 68
1.540 11.182 1.543 171 152 109
1.593 11.184 1.546 144 127 83
1.645 11.188 1.548 106 92 53
1.696 11.197 1.548 90 76 47
1.746 11.211 1.547 68 58 31
1.795 11.229 1.546 90 81 52
1.844 11.247 1.544 101 88 56
1.895 11.262 1.542 111 95 61
1.946 11.276 1.540 119 110 71
1.997 11.285 1.539 102 94 55
2.050 11.289 1.539 93 85 48
2.102 11.278 1.541 81 73 37
2.154 10.534 1.679 32 27 7
2.189 10.555 1.674 25 39 6
2.224 10.569 1.670 129 111 39
2.257 10.543 1.676 58 58 34
2.290 10.536 1.677 98 95 76
2.325 10.543 1.674 60 54 38
2.363 10.562 1.669 79 76 35
2.399 10.564 1.667 118 112 60
2.432 10.550 1.669 85 81 34
2.464 10.536 1.670 95 92 41
2.497 10.525 1.671 91 84 38
2.530 10.514 1.672 70 70 32
2.565 10.511 1.670 49 51 38
2.610 10.536 1.661 93 92 98
2.637 10.505 1.666 75 76 68
2.652 10.447 1.677 45 48 27
2.674 10.411 1.683 45 50 30
2.696 10.377 1.688 84 87 68
2.715 10.341 1.694 71 73 52
2.732 10.305 1.700 45 51 25
2.760 10.289 1.700 37 42 20
2.806 10.307 1.692 113 115 102
3.088 10.714 1.577 32 28 25
3.134 10.703 1.573 69 65 62
3.144 10.637 1.585 32 35 28
3.153 10.573 1.596 41 44 37
3.204 10.572 1.589 34 34 26
3.241 10.548 1.588 70 66 57
3.265 10.509 1.592 59 47 47
3.301 10.485 1.591 46 39 47
3.339 10.463 1.589 18 20 32
3.359 10.421 1.593 15 22 30
3.351 10.353 1.605 107 109 108
3.352 10.296 1.615 21 23 18
3.343 10.233 1.626 34 41 33
3.370 10.205 1.626 33 45 33
3.417 10.192 1.619 56 60 45
3.700 10.363 1.543 62 45 35
3.675 10.284 1.559 63 53 43
3.557 10.144 1.600 32 33 28
3.541 10.082 1.611 43 39 38
3.495 10.005 1.630 27 28 20
3.458 9.937 1.646 42 45 34
3.681 10.021 1.591 70 60 58
3.514 9.883 1.641 71 67 56
3.416 9.791 1.671 51 44 16
3.525 9.804 1.647 100 83 67
3.792 9.882 1.582 37 26 22
3.487 9.708 1.664 128 121 102
3.386 9.631 1.692 83 79 50
3.394 9.600 1.693 77 74 39
3.497 9.600 1.670 114 103 73
3.648 9.609 1.636 59 30 24
4.813 9.892 1.357 167 157 148
5.663 10.035 1.157 176 156 149
5.697 9.952 1.153 127 73 73
5.701 9.862 1.157 142 107 111
5.607 9.755 1.183 153 154 140
5.408 9.639 1.233 179 171 152
5.015 9.509 1.328 108 60 60
4.915 9.428 1.353 122 90 95
4.955 9.363 1.345 152 149 140
5.084 9.300 1.316 198 163 159
5.311 9.234 1.264 126 88 87
5.198 9.156 1.290 152 152 142
5.067 9.085 1.321 157 107 106
4.867 9.023 1.367 106 80 65
4.594 8.976 1.430 73 77 60
4.358 8.939 1.484 153 130 124
4.050 8.922 1.555 106 88 76
3.780 8.915 1.617 49 22 13
3.698 8.888 1.635 137 118 112
3.675 8.854 1.639 101 74 67
3.538 8.845 1.669 129 95 86
3.426 8.838 1.694 145 137 118
3.389 8.814 1.701 84 79 60
3.366 8.788 1.705 99 84 53
3.346 8.763 1.707 149 133 99
3.725 8.594 1.611 220 200 114
3.732 8.547 1.606 114 95 80
3.403 8.639 1.685 64 56 43
3.263 8.665 1.717 90 78 62
3.233 8.646 1.722 125 110 89
3.212 8.624 1.724 99 82 62
3.334 8.525 1.688 98 75 57
3.460 8.417 1.650 73 40 25
3.383 8.419 1.666 119 100 86
3.278 8.444 1.690 54 47 41
3.198 8.459 1.707 67 59 57
3.161 8.447 1.713 41 27 16
3.129 8.433 1.717 184 163 134
3.105 8.414 1.719 202 177 147
3.365 8.162 1.635 88 64 40
3.074 8.363 1.717 145 121 97
3.018 8.374 1.728 196 175 146
2.992 8.358 1.730 174 155 122
3.002 8.309 1.721 79 67 41
3.191 8.068 1.650 56 35 30
3.142 8.066 1.657 120 93 84
3.015 8.158 1.693 98 80 58
2.972 8.160 1.699 133 116 100
2.938 8.152 1.703 114 107 89
2.920 8.123 1.700 110 93 73
3.014 7.935 1.652 213 196 114
2.972 7.932 1.657 158 133 103
2.924 7.941 1.665 67 49 27
2.884 7.939 1.669 66 53 45
2.857 7.916 1.668 39 28 26
2.813 7.925 1.674 44 34 22
2.770 7.933 1.681 65 53 41
2.731 7.937 1.686 45 32 24
2.692 7.943 1.691 81 75 59
2.656 7.945 1.694 63 61 48
2.624 7.937 1.695 63 58 55
2.600 7.910 1.691 45 38 28
2.584 7.857 1.681 114 114 106
2.561 7.815 1.673 36 38 37
2.529 7.802 1.672 34 33 31
2.498 7.783 1.670 55 49 49
