ply
format ascii 1.0
element vertex 1602
property float x
property float y
property float z
property uchar red
property uchar green
property uchar blue
end_header
-7.267 3.221 -3.697 130 132 129
-7.180 3.396 -3.691 127 129 126
-7.086 3.567 -3.684 125 127 124
-6.987 3.735 -3.677 130 132 131
-6.886 3.901 -3.671 135 137 134
-6.785 4.067 -3.668 124 128 127
-6.679 4.230 -3.665 14 19 23
-6.570 4.390 -3.662 14 19 25
-6.450 4.542 -3.653 37 41 44
-6.313 4.682 -3.632 16 20 19
-6.185 4.827 -3.622 57 59 56
-6.056 4.970 -3.614 109 109 107
-5.918 5.105 -3.601 76 76 76
-5.773 5.233 -3.584 75 76 78
-5.623 5.354 -3.564 29 32 37
-5.486 5.486 -3.559 21 25 28
-5.337 5.606 -3.546 138 140 137
-4.153 4.582 -2.432 134 134 124
-3.610 4.185 -1.960 120 115 109
-3.493 4.257 -1.946 116 109 103
-3.384 4.336 -1.942 120 113 107
-3.267 4.405 -1.930 120 113 107
-3.148 4.470 -1.918 120 113 107
-3.030 4.535 -1.909 122 114 111
-2.913 4.600 -1.901 123 116 110
-2.794 4.662 -1.895 123 116 108
-2.674 4.720 -1.887 121 114 106
-2.551 4.772 -1.878 121 117 106
-2.427 4.822 -1.868 122 118 107
-2.301 4.865 -1.857 122 118 107
-2.175 4.906 -1.846 121 117 106
-2.047 4.943 -1.834 118 114 105
-1.919 4.975 -1.821 118 114 105
-1.790 5.004 -1.808 119 115 106
-1.662 5.030 -1.796 119 115 106
-1.533 5.054 -1.785 118 113 107
-1.405 5.075 -1.774 117 112 106
-1.276 5.096 -1.764 116 111 105
-1.148 5.112 -1.755 116 111 105
-1.019 5.125 -1.744 114 111 104
-0.891 5.134 -1.734 113 110 103
-0.763 5.141 -1.724 115 112 105
-0.634 5.144 -1.714 113 110 103
-0.506 5.142 -1.703 112 109 102
-0.379 5.142 -1.694 112 109 102
-0.252 5.134 -1.684 113 108 102
-0.126 5.117 -1.668 112 107 101
0.000 7.902 -3.861 19 25 23
0.193 7.870 -3.839 37 43 41
0.385 7.827 -3.812 27 33 31
0.574 7.788 -3.792 30 36 34
0.763 7.751 -3.776 33 38 41
0.950 7.704 -3.757 33 38 41
1.134 7.646 -3.733 36 41 44
1.315 7.581 -3.707 31 36 39
1.495 7.514 -3.682 41 45 46
1.672 7.445 -3.659 45 49 48
1.847 7.372 -3.637 59 63 62
2.019 7.296 -3.615 60 64 63
2.189 7.217 -3.593 63 67 68
2.359 7.140 -3.577 67 71 72
2.529 7.068 -3.567 67 71 72
2.700 7.001 -3.565 69 73 74
2.870 6.928 -3.561 73 74 76
3.034 6.846 -3.553 71 75 76
3.196 6.758 -3.545 70 76 76
3.355 6.664 -3.534 67 76 75
3.509 6.564 -3.520 70 74 77
3.660 6.460 -3.507 70 73 78
3.808 6.353 -3.494 70 73 78
3.954 6.244 -3.481 70 73 78
4.097 6.132 -3.469 69 72 77
4.237 6.017 -3.458 70 73 78
4.373 5.896 -3.444 71 74 79
4.505 5.773 -3.431 71 74 79
4.634 5.647 -3.417 71 74 79
4.759 5.517 -3.404 71 74 79
4.882 5.386 -3.391 68 71 76
5.001 5.253 -3.379 70 73 78
5.117 5.117 -3.367 70 73 78
5.230 4.980 -3.356 71 74 79
5.341 4.841 -3.346 70 73 78
5.449 4.701 -3.337 70 73 78
5.553 4.557 -3.328 68 73 79
5.652 4.411 -3.318 70 75 81
5.748 4.263 -3.307 69 74 80
5.840 4.113 -3.298 69 74 80
5.929 3.961 -3.288 70 75 79
6.013 3.807 -3.278 69 74 78
6.092 3.651 -3.267 69 74 78
6.167 3.493 -3.256 69 74 78
6.237 3.334 -3.245 70 73 78
6.304 3.173 -3.235 70 73 78
6.368 3.012 -3.224 71 74 79
6.427 2.849 -3.214 70 73 78
6.482 2.685 -3.204 70 73 80
6.534 2.520 -3.194 71 74 81
6.581 2.355 -3.184 72 75 82
6.625 2.188 -3.174 72 75 82
6.664 2.021 -3.164 72 77 83
6.700 1.854 -3.156 70 75 81
6.732 1.686 -3.147 71 76 82
6.760 1.518 -3.139 70 75 81
6.785 1.350 -3.130 69 74 80
6.803 1.180 -3.121 69 74 78
6.816 1.011 -3.110 68 73 77
6.824 0.842 -3.099 69 74 78
6.832 0.673 -3.092 70 73 78
6.836 0.504 -3.084 70 73 78
6.836 0.336 -3.076 72 75 80
6.833 0.168 -3.069 71 74 79
6.827 0.000 -3.063 70 73 78
6.814 -0.167 -3.055 70 73 78
6.797 -0.334 -3.047 71 74 81
6.776 -0.500 -3.039 71 74 81
6.751 -0.665 -3.031 70 75 79
6.726 -0.830 -3.026 70 75 79
6.696 -0.993 -3.020 69 74 78
6.663 -1.156 -3.015 70 75 79
6.624 -1.318 -3.009 71 74 81
6.581 -1.478 -3.002 71 74 81
6.534 -1.637 -2.995 71 74 81
6.484 -1.794 -2.989 72 75 80
6.431 -1.951 -2.984 72 75 80
6.373 -2.106 -2.978 74 77 82
6.313 -2.259 -2.972 73 76 81
6.247 -2.410 -2.966 75 78 83
6.180 -2.560 -2.961 76 79 84
6.108 -2.708 -2.955 76 79 84
6.034 -2.854 -2.951 75 78 83
5.955 -2.997 -2.944 77 80 85
5.871 -3.138 -2.938 76 79 86
5.785 -3.277 -2.931 76 79 84
5.696 -3.414 -2.926 75 78 83
5.605 -3.549 -2.920 74 77 82
5.509 -3.681 -2.914 74 77 82
5.409 -3.809 -2.906 75 78 83
5.304 -3.934 -2.898 76 79 84
5.196 -4.055 -2.889 76 79 84
5.086 -4.174 -2.880 77 78 82
4.975 -4.291 -2.873 77 78 82
4.861 -4.405 -2.865 82 82 84
4.746 -4.519 -2.860 79 77 80
4.632 -4.632 -2.858 71 74 79
4.516 -4.744 -2.858 46 49 56
4.886 -5.391 -3.396 133 134 138
4.848 -5.620 -3.505 129 129 131
4.705 -5.733 -3.500 103 102 100
4.553 -5.834 -3.489 105 104 102
4.399 -5.931 -3.476 107 106 104
4.239 -6.019 -3.460 108 107 105
4.080 -6.106 -3.446 110 105 102
3.923 -6.195 -3.439 113 105 103
3.760 -6.274 -3.425 121 111 110
3.596 -6.347 -3.410 113 103 102
3.432 -6.420 -3.399 116 101 104
3.294 -6.544 -3.433 101 91 92
3.146 -6.652 -3.458 96 87 88
2.946 -6.647 -3.392 119 107 109
2.770 -6.687 -3.368 111 99 99
2.604 -6.751 -3.366 109 99 98
2.434 -6.803 -3.359 107 97 96
2.262 -6.846 -3.347 107 97 96
2.090 -6.888 -3.339 105 95 96
1.917 -6.927 -3.330 105 95 96
1.744 -6.961 -3.322 109 99 100
1.570 -6.990 -3.313 106 96 97
1.395 -7.015 -3.305 110 100 101
1.221 -7.037 -3.297 110 100 101
1.047 -7.056 -3.291 108 98 99
0.872 -7.072 -3.285 109 99 100
0.698 -7.084 -3.280 109 99 100
0.523 -7.090 -3.272 109 99 100
0.348 -7.090 -3.265 109 99 100
0.174 -7.085 -3.256 106 96 97
0.000 -7.076 -3.248 105 95 96
-0.173 -7.064 -3.240 102 92 93
-0.346 -7.047 -3.233 101 91 92
-0.518 -7.026 -3.225 102 92 93
-0.690 -7.002 -3.219 102 92 93
-0.860 -6.975 -3.212 104 94 95
-1.029 -6.937 -3.201 106 96 97
-1.197 -6.901 -3.195 108 98 99
-1.365 -6.861 -3.188 105 95 96
-1.531 -6.817 -3.182 105 95 96
-1.696 -6.769 -3.175 106 96 97
-1.858 -6.716 -3.168 103 93 94
-2.018 -6.652 -3.155 104 92 92
-2.174 -6.582 -3.141 101 89 89
-2.332 -6.517 -3.133 104 94 95
-2.485 -6.443 -3.122 106 97 100
-2.628 -6.345 -3.093 110 101 104
-2.745 -6.193 -3.024 100 94 96
-2.821 -5.965 -2.894 98 94 95
-2.938 -5.836 -2.846 96 91 95
-3.072 -5.748 -2.834 48 48 50
-3.211 -5.668 -2.832 33 34 36
-3.361 -5.607 -2.848 12 13 15
-3.513 -5.547 -2.869 13 14 18
-3.663 -5.483 -2.890 9 12 19
-3.813 -5.414 -2.911 10 13 20
-3.961 -5.341 -2.931 9 12 19
-4.125 -5.286 -2.973 7 10 17
-4.282 -5.218 -3.006 4 7 14
-4.447 -5.156 -3.050 12 15 22
-4.644 -5.124 -3.129 21 24 31
-5.042 -5.296 -3.423 15 18 25
-5.441 -5.441 -3.706 10 15 21
-5.677 -5.405 -3.813 5 9 18
-5.877 -5.327 -3.883 5 9 18
-6.059 -5.226 -3.934 6 10 19
-6.241 -5.122 -3.988 9 10 15
-6.419 -5.009 -4.039 10 11 15
-6.578 -4.878 -4.074 45 46 50
-6.721 -4.734 -4.097 100 102 101
-6.859 -4.583 -4.118 111 111 109
-6.985 -4.423 -4.132 110 110 108
-7.106 -4.259 -4.145 111 111 109
-7.222 -4.091 -4.156 122 122 120
-7.333 -3.920 -4.167 131 134 127
-7.437 -3.744 -4.175 14 19 22
-7.538 -3.565 -4.184 10 16 28
-7.629 -3.381 -4.189 17 26 35
-7.708 -3.193 -4.188 25 30 34
-7.772 -2.998 -4.178 68 72 75
-7.833 -2.803 -4.170 68 72 73
-7.888 -2.606 -4.161 110 112 111
-7.935 -2.407 -4.150 109 109 109
-7.980 -2.208 -4.141 42 42 40
-8.021 -2.009 -4.132 45 47 42
-8.056 -1.809 -4.123 70 74 77
-8.086 -1.608 -4.114 25 29 38
-8.115 -1.408 -4.109 19 22 27
-8.134 -1.207 -4.098 136 141 137
-8.148 -1.005 -4.089 137 139 134
-8.152 -0.803 -4.075 131 133 130
-8.150 -0.601 -4.061 116 118 115
-8.140 -0.400 -4.045 115 117 114
-8.132 -0.200 -4.033 115 117 114
-8.117 -0.000 -4.020 120 122 119
-8.097 0.199 -4.007 118 120 117
-8.071 0.397 -3.993 120 122 119
-8.044 0.593 -3.982 120 122 119
-8.011 0.789 -3.970 124 126 123
-7.974 0.983 -3.958 103 105 102
-7.928 1.176 -3.944 120 122 119
-7.880 1.367 -3.932 122 124 121
-7.827 1.557 -3.918 125 127 124
-7.771 1.745 -3.907 124 126 123
-7.714 1.932 -3.898 120 122 119
-7.651 2.117 -3.888 122 124 121
-7.581 2.300 -3.876 122 122 120
-7.506 2.480 -3.862 123 123 121
-7.426 2.657 -3.849 118 118 116
-7.344 2.833 -3.838 122 122 120
-7.260 3.007 -3.828 126 128 125
-7.174 3.180 -3.820 127 129 126
-7.088 3.352 -3.815 127 129 126
-6.996 3.522 -3.809 133 135 132
-6.900 3.688 -3.803 133 138 134
-6.800 3.852 -3.796 120 125 121
-6.700 4.016 -3.793 119 125 125
-6.597 4.177 -3.791 9 16 24
-6.493 4.338 -3.792 23 28 34
-6.377 4.491 -3.784 63 67 70
-6.244 4.631 -3.765 107 111 110
-6.117 4.774 -3.754 72 74 71
-5.987 4.913 -3.744 98 98 98
-5.847 5.044 -3.727 132 132 132
-5.704 5.170 -3.710 110 111 113
-5.557 5.291 -3.690 18 22 25
-5.420 5.420 -3.685 21 25 26
-5.265 5.530 -3.663 136 138 135
-4.113 4.538 -2.542 131 131 121
-3.793 4.397 -2.307 117 112 106
-3.668 4.469 -2.288 125 118 112
-3.550 4.549 -2.279 121 114 108
-3.427 4.621 -2.267 120 113 107
-3.303 4.690 -2.254 120 113 107
-3.179 4.758 -2.244 121 113 110
-3.055 4.824 -2.235 122 115 109
-2.930 4.889 -2.227 123 116 108
-2.803 4.948 -2.218 121 114 106
-2.674 5.004 -2.208 119 115 104
-2.545 5.055 -2.197 120 116 105
-2.413 5.102 -2.186 120 116 105
-2.282 5.148 -2.177 118 114 103
-2.150 5.190 -2.167 118 114 105
-2.017 5.228 -2.156 118 113 107
-1.883 5.262 -2.145 117 112 106
-1.748 5.292 -2.133 117 112 106
-1.614 5.319 -2.123 117 112 106
-1.479 5.343 -2.112 116 111 105
-1.344 5.364 -2.101 116 111 105
-1.208 5.380 -2.089 116 111 105
-1.072 5.391 -2.077 114 111 104
-0.937 5.400 -2.065 113 110 103
-0.802 5.406 -2.053 112 109 102
-0.667 5.409 -2.042 112 109 102
-0.532 5.405 -2.028 109 109 101
-0.398 5.402 -2.017 109 109 101
-0.265 5.396 -2.007 110 107 100
-0.132 5.384 -1.994 110 105 99
0.000 7.922 -4.079 46 52 52
0.194 7.900 -4.064 49 55 55
0.387 7.875 -4.050 49 55 55
0.579 7.847 -4.037 55 61 61
0.770 7.816 -4.027 51 55 56
0.960 7.783 -4.017 54 55 57
1.148 7.741 -4.005 60 61 63
1.334 7.690 -3.989 63 64 66
1.520 7.640 -3.977 74 76 75
1.703 7.586 -3.966 105 107 104
1.887 7.533 -3.959 89 91 88
2.070 7.480 -3.955 76 78 75
2.253 7.427 -3.955 72 73 75
2.433 7.366 -3.953 76 77 79
2.612 7.299 -3.949 78 79 81
2.788 7.227 -3.944 76 77 79
2.960 7.147 -3.936 73 77 78
3.128 7.058 -3.924 72 76 77
3.294 6.964 -3.911 76 80 81
3.457 6.867 -3.899 69 73 74
3.616 6.765 -3.886 66 69 74
3.772 6.658 -3.872 68 71 76
3.926 6.550 -3.859 67 70 75
4.077 6.438 -3.847 69 72 77
4.225 6.323 -3.836 73 74 78
4.371 6.206 -3.825 66 67 71
4.511 6.083 -3.811 70 71 75
4.649 5.957 -3.798 68 69 73
4.783 5.828 -3.785 68 69 71
4.913 5.695 -3.772 67 67 69
5.040 5.561 -3.759 67 67 69
5.164 5.424 -3.746 67 67 69
5.283 5.283 -3.733 64 65 67
5.400 5.141 -3.721 67 68 72
5.513 4.997 -3.709 67 68 72
5.623 4.850 -3.698 69 70 74
5.729 4.701 -3.687 64 67 72
5.831 4.551 -3.676 69 72 77
5.929 4.397 -3.664 69 72 77
6.024 4.242 -3.653 68 71 76
6.115 4.086 -3.643 70 73 78
6.203 3.928 -3.633 75 76 80
6.286 3.768 -3.624 71 72 74
6.366 3.606 -3.614 72 73 75
6.440 3.442 -3.603 70 71 73
6.511 3.277 -3.593 70 71 75
6.577 3.111 -3.583 73 74 78
6.639 2.943 -3.573 74 75 79
6.697 2.774 -3.562 74 75 79
6.751 2.604 -3.552 74 75 79
6.800 2.433 -3.542 75 76 80
6.845 2.261 -3.531 70 71 75
6.886 2.089 -3.522 70 75 81
6.923 1.916 -3.512 67 71 80
6.956 1.742 -3.502 67 71 80
6.984 1.568 -3.493 67 71 80
7.009 1.394 -3.483 59 66 72
7.028 1.219 -3.473 68 73 77
7.043 1.045 -3.463 71 75 78
7.054 0.870 -3.454 70 74 77
7.062 0.696 -3.445 68 69 71
7.067 0.521 -3.437 72 73 75
7.068 0.347 -3.430 72 73 75
7.066 0.173 -3.424 74 75 77
7.061 0.000 -3.418 72 73 75
7.049 -0.173 -3.410 71 72 74
7.032 -0.345 -3.402 75 76 78
7.012 -0.517 -3.395 74 75 77
6.988 -0.688 -3.388 72 75 80
6.962 -0.859 -3.383 74 77 84
6.931 -1.028 -3.377 70 73 80
6.896 -1.197 -3.371 69 72 81
6.854 -1.363 -3.362 70 74 83
6.807 -1.529 -3.353 72 75 82
6.758 -1.693 -3.346 74 75 80
6.706 -1.856 -3.339 73 74 76
6.651 -2.018 -3.333 72 73 75
6.593 -2.178 -3.328 73 74 76
6.531 -2.337 -3.322 75 76 78
6.466 -2.494 -3.318 77 78 80
6.398 -2.650 -3.314 75 79 80
6.325 -2.804 -3.309 76 80 83
6.249 -2.956 -3.305 74 78 81
6.168 -3.105 -3.298 75 79 82
6.083 -3.252 -3.293 71 74 79
5.994 -3.396 -3.287 78 81 86
5.902 -3.537 -3.280 74 78 81
5.804 -3.676 -3.272 76 80 83
5.703 -3.811 -3.263 79 80 84
5.598 -3.942 -3.254 81 82 86
5.491 -4.072 -3.245 55 56 60
5.381 -4.199 -3.238 81 82 84
5.270 -4.325 -3.232 85 85 87
5.154 -4.446 -3.223 84 84 86
5.034 -4.563 -3.214 87 87 87
4.918 -4.683 -3.211 87 87 85
4.796 -4.796 -3.204 81 81 81
4.698 -4.934 -3.228 89 89 91
5.080 -5.604 -3.804 118 118 118
4.994 -5.790 -3.867 130 130 130
4.851 -5.910 -3.867 97 96 94
4.696 -6.017 -3.856 106 105 101
4.540 -6.121 -3.848 106 105 101
4.380 -6.220 -3.837 108 107 103
4.222 -6.318 -3.831 108 100 98
4.063 -6.416 -3.827 110 100 99
3.900 -6.507 -3.821 112 100 100
3.733 -6.590 -3.812 115 101 101
3.564 -6.668 -3.801 111 99 101
3.397 -6.748 -3.797 110 98 100
3.226 -6.820 -3.789 107 93 93
3.048 -6.876 -3.772 113 97 98
2.876 -6.942 -3.766 111 99 99
2.702 -7.004 -3.760 109 97 97
2.525 -7.056 -3.751 109 97 97
2.346 -7.102 -3.739 110 98 98
2.167 -7.145 -3.729 113 98 101
1.988 -7.185 -3.720 107 95 97
1.808 -7.220 -3.711 110 98 100
1.628 -7.250 -3.702 108 98 99
1.447 -7.275 -3.692 111 99 101
1.266 -7.296 -3.682 107 95 97
1.085 -7.314 -3.674 110 98 100
0.904 -7.330 -3.667 110 98 100
0.723 -7.342 -3.661 106 96 95
0.542 -7.348 -3.654 111 101 100
0.361 -7.349 -3.646 107 97 96
0.180 -7.345 -3.638 107 97 96
0.000 -7.338 -3.630 108 98 97
-0.180 -7.327 -3.624 101 91 90
-0.359 -7.312 -3.617 102 92 91
-0.538 -7.291 -3.610 100 90 89
-0.716 -7.268 -3.604 102 92 91
-0.893 -7.241 -3.598 105 95 94
-1.069 -7.205 -3.589 107 97 96
-1.244 -7.170 -3.584 107 97 96
-1.419 -7.132 -3.580 107 97 96
-1.592 -7.091 -3.576 107 97 96
-1.765 -7.045 -3.573 104 94 93
-1.935 -6.993 -3.567 102 92 91
-2.103 -6.934 -3.560 105 93 95
-2.269 -6.869 -3.551 104 92 94
-2.434 -6.803 -3.544 105 95 96
-2.597 -6.733 -3.538 109 99 100
-2.758 -6.657 -3.529 108 98 99
-2.916 -6.577 -3.521 104 94 95
-3.072 -6.496 -3.514 104 94 95
-3.228 -6.414 -3.510 104 94 95
-3.380 -6.323 -3.502 105 97 95
-3.502 -6.183 -3.452 106 98 96
-3.593 -5.994 -3.362 95 90 87
-3.623 -5.721 -3.196 105 104 102
-3.738 -5.594 -3.163 72 72 74
-3.874 -5.500 -3.162 44 43 48
-4.006 -5.401 -3.160 39 38 43
-4.141 -5.306 -3.165 23 22 27
-4.281 -5.217 -3.178 31 30 35
-4.417 -5.120 -3.189 24 23 29
-4.552 -5.023 -3.201 16 15 21
-4.697 -4.933 -3.227 24 25 30
-4.920 -4.920 -3.339 25 26 30
-5.445 -5.184 -3.769 15 16 20
-5.703 -5.169 -3.906 3 6 11
-5.888 -5.079 -3.967 4 9 15
-6.062 -4.975 -4.018 5 10 13
-6.229 -4.861 -4.063 8 12 15
-6.398 -4.745 -4.112 8 12 15
-6.562 -4.622 -4.159 3 6 11
-6.721 -4.491 -4.203 0 2 3
-6.862 -4.345 -4.232 33 34 36
-6.987 -4.188 -4.251 29 30 32
-7.107 -4.026 -4.268 60 61 63
-7.224 -3.861 -4.285 99 104 107
-7.334 -3.692 -4.300 14 19 25
-7.436 -3.517 -4.312 13 17 28
-7.530 -3.338 -4.320 18 22 31
-7.610 -3.152 -4.321 31 36 39
-7.674 -2.960 -4.311 10 14 15
-7.738 -2.769 -4.306 125 127 126
-7.793 -2.574 -4.297 35 35 33
-7.840 -2.378 -4.287 42 40 41
-7.884 -2.182 -4.277 139 139 139
-7.924 -1.985 -4.268 78 80 79
-7.956 -1.787 -4.257 31 35 38
-7.988 -1.589 -4.249 18 21 30
-8.018 -1.391 -4.244 27 28 33
-8.040 -1.193 -4.237 131 133 130
-8.052 -0.993 -4.226 129 132 123
-8.059 -0.794 -4.214 128 129 123
-8.058 -0.594 -4.200 127 128 123
-8.049 -0.395 -4.184 129 130 125
-8.041 -0.197 -4.172 127 128 123
-8.025 -0.000 -4.158 130 131 126
-8.002 0.196 -4.142 127 126 122
-7.976 0.392 -4.127 125 124 120
-7.947 0.586 -4.114 128 127 123
-7.913 0.779 -4.101 123 124 119
-7.873 0.971 -4.087 121 122 117
-7.826 1.161 -4.071 117 118 113
-7.777 1.349 -4.056 119 120 115
-7.722 1.536 -4.041 115 115 113
-7.668 1.722 -4.030 118 117 115
-7.611 1.906 -4.021 117 116 114
-7.548 2.089 -4.010 117 116 114
-7.479 2.269 -3.997 116 116 114
-7.403 2.446 -3.983 113 113 111
-7.324 2.621 -3.969 113 113 111
-7.243 2.794 -3.957 113 113 111
-7.159 2.966 -3.946 116 116 114
-7.077 3.137 -3.940 116 116 114
-6.991 3.306 -3.934 118 118 116
-6.897 3.472 -3.925 118 118 116
-6.804 3.637 -3.920 124 123 119
-6.707 3.799 -3.915 126 126 124
-6.610 3.962 -3.913 50 54 55
-6.513 4.124 -3.915 13 21 24
-6.411 4.283 -3.916 23 28 34
-6.298 4.436 -3.911 35 36 41
-6.172 4.577 -3.896 20 21 23
-6.045 4.718 -3.884 133 133 131
-5.912 4.852 -3.869 112 114 111
-5.774 4.980 -3.851 38 40 37
-5.634 5.106 -3.834 116 120 119
-5.489 5.226 -3.815 30 34 35
-5.345 5.345 -3.801 28 30 27
-5.180 5.441 -3.764 136 137 131
-4.127 4.553 -2.715 121 118 109
-3.956 4.586 -2.647 123 117 105
-3.828 4.665 -2.630 123 116 108
-3.702 4.744 -2.618 128 124 115
-3.575 4.820 -2.605 121 117 108
-3.446 4.892 -2.592 121 117 106
-3.317 4.964 -2.581 117 113 101
-3.187 5.034 -2.572 119 115 104
-3.058 5.101 -2.564 121 117 108
-2.925 5.163 -2.553 122 115 109
-2.791 5.221 -2.543 126 117 112
-2.655 5.274 -2.531 122 113 108
-2.520 5.327 -2.522 123 116 110
-2.383 5.377 -2.513 121 116 110
-2.246 5.423 -2.504 120 117 110
-2.108 5.464 -2.494 117 114 105
-1.968 5.501 -2.483 118 115 106
-1.828 5.533 -2.471 116 113 104
-1.687 5.561 -2.459 116 113 106
-1.546 5.587 -2.448 116 113 106
-1.405 5.608 -2.436 116 113 106
-1.263 5.625 -2.423 115 112 105
-1.121 5.637 -2.410 116 111 105
-0.980 5.646 -2.397 116 111 105
-0.838 5.652 -2.385 112 109 102
-0.698 5.656 -2.373 111 108 101
-0.557 5.651 -2.357 108 109 101
-0.417 5.647 -2.345 108 108 100
-0.277 5.643 -2.335 109 106 99
-0.138 5.630 -2.322 110 105 99
0.000 8.092 -4.422 40 46 46
0.198 8.077 -4.412 46 52 52
0.396 8.060 -4.405 48 54 54
0.593 8.033 -4.392 50 56 56
0.789 8.013 -4.390 62 66 67
0.984 7.980 -4.382 58 62 63
1.179 7.946 -4.376 102 106 107
1.371 7.899 -4.363 98 102 103
1.562 7.854 -4.355 61 67 67
1.752 7.802 -4.347 59 64 67
1.941 7.751 -4.341 57 62 65
2.129 7.693 -4.335 61 66 69
2.316 7.633 -4.331 60 66 66
2.500 7.567 -4.325 60 66 66
2.682 7.496 -4.319 59 65 65
2.862 7.419 -4.311 63 69 69
3.039 7.337 -4.302 61 66 69
3.212 7.247 -4.291 66 71 74
3.383 7.153 -4.280 67 72 75
3.551 7.055 -4.269 64 69 72
3.716 6.952 -4.257 64 69 73
3.878 6.846 -4.245 64 69 73
4.038 6.736 -4.233 63 68 72
4.193 6.622 -4.220 62 67 71
4.346 6.504 -4.208 65 69 72
4.496 6.383 -4.196 63 67 70
4.640 6.256 -4.182 64 68 71
4.782 6.127 -4.169 62 66 69
4.920 5.995 -4.156 62 66 69
5.055 5.860 -4.143 64 68 71
5.187 5.723 -4.130 63 67 70
5.315 5.583 -4.118 63 67 70
5.439 5.439 -4.105 64 68 71
5.560 5.293 -4.092 66 70 73
5.676 5.145 -4.080 57 61 64
5.791 4.996 -4.070 60 64 67
5.901 4.843 -4.059 57 62 66
6.008 4.688 -4.048 66 71 75
6.110 4.531 -4.037 64 69 73
6.209 4.373 -4.027 63 68 72
6.303 4.212 -4.017 65 68 73
6.395 4.049 -4.007 81 84 89
6.481 3.885 -3.997 83 87 90
6.563 3.718 -3.986 85 89 90
6.640 3.549 -3.976 92 96 99
6.713 3.379 -3.965 97 101 104
6.782 3.208 -3.955 101 105 108
6.847 3.035 -3.944 102 106 109
6.907 2.861 -3.933 106 110 113
6.963 2.686 -3.923 110 114 117
7.015 2.510 -3.913 111 115 118
7.061 2.333 -3.902 112 116 119
7.103 2.155 -3.891 83 88 94
7.142 1.976 -3.881 59 64 70
7.177 1.798 -3.872 64 69 75
7.208 1.619 -3.863 64 69 75
7.235 1.439 -3.854 62 69 75
7.254 1.259 -3.843 60 65 69
7.271 1.079 -3.834 118 121 126
7.285 0.899 -3.825 118 122 125
7.294 0.718 -3.817 122 123 125
7.298 0.538 -3.808 118 119 121
7.299 0.359 -3.800 120 121 123
7.296 0.179 -3.792 121 122 124
7.291 0.000 -3.786 120 124 125
7.278 -0.179 -3.778 120 124 125
7.262 -0.357 -3.770 119 123 124
7.240 -0.534 -3.762 118 122 123
7.216 -0.711 -3.754 128 133 137
7.189 -0.887 -3.749 66 71 77
7.159 -1.062 -3.744 67 71 80
7.124 -1.236 -3.739 69 73 82
7.082 -1.409 -3.731 68 72 81
7.035 -1.580 -3.722 65 70 76
6.987 -1.750 -3.716 111 115 118
6.933 -1.919 -3.709 115 116 118
6.875 -2.086 -3.702 123 124 126
6.814 -2.251 -3.696 119 120 122
6.751 -2.415 -3.690 111 112 114
6.684 -2.578 -3.686 112 113 115
6.614 -2.739 -3.681 113 117 118
6.538 -2.898 -3.676 110 114 115
6.459 -3.055 -3.671 114 118 119
6.374 -3.209 -3.664 109 113 114
6.287 -3.361 -3.658 109 112 117
6.196 -3.510 -3.651 77 80 85
6.101 -3.657 -3.645 76 80 83
6.001 -3.800 -3.637 75 79 82
5.897 -3.940 -3.629 98 99 103
5.789 -4.077 -3.620 83 84 88
5.680 -4.212 -3.612 110 111 113
5.566 -4.344 -3.604 113 115 114
5.451 -4.473 -3.596 112 112 114
5.332 -4.600 -3.589 114 114 116
5.211 -4.723 -3.582 111 111 111
5.092 -4.848 -3.580 112 112 110
4.966 -4.966 -3.574 113 111 112
4.936 -5.184 -3.681 106 104 105
5.202 -5.740 -4.148 89 89 89
5.149 -5.969 -4.257 140 142 141
5.011 -6.106 -4.269 152 151 149
4.843 -6.205 -4.247 100 99 95
4.682 -6.314 -4.238 105 104 100
4.521 -6.419 -4.231 105 104 100
4.358 -6.522 -4.226 111 106 103
4.195 -6.625 -4.223 106 98 96
4.026 -6.718 -4.216 105 95 94
3.855 -6.805 -4.207 108 96 96
3.682 -6.888 -4.199 111 99 101
3.506 -6.966 -4.189 106 94 96
3.328 -7.037 -4.178 108 94 94
3.148 -7.102 -4.166 111 95 95
2.969 -7.167 -4.157 111 97 96
2.788 -7.227 -4.148 107 96 94
2.605 -7.281 -4.138 105 94 92
2.422 -7.331 -4.127 106 95 93
2.238 -7.378 -4.119 110 96 96
2.053 -7.420 -4.111 110 96 96
1.868 -7.458 -4.102 110 98 98
1.682 -7.491 -4.094 108 98 97
1.495 -7.518 -4.084 109 97 97
1.308 -7.541 -4.074 111 99 99
1.122 -7.561 -4.067 112 100 100
0.935 -7.579 -4.061 111 99 99
0.748 -7.593 -4.055 111 101 100
0.561 -7.600 -4.048 111 101 100
0.373 -7.601 -4.040 108 98 97
0.187 -7.599 -4.033 104 94 93
0.000 -7.593 -4.026 103 93 92
-0.186 -7.583 -4.020 101 91 90
-0.372 -7.567 -4.013 99 89 88
-0.557 -7.547 -4.006 103 93 92
-0.741 -7.522 -3.999 106 96 95
-0.924 -7.495 -3.993 106 96 95
-1.107 -7.464 -3.988 107 97 96
-1.289 -7.428 -3.984 107 97 96
-1.469 -7.385 -3.976 106 96 95
-1.648 -7.341 -3.971 106 96 95
-1.827 -7.294 -3.968 106 96 95
-2.004 -7.241 -3.963 103 93 92
-2.179 -7.183 -3.957 105 95 96
-2.352 -7.121 -3.952 105 95 96
-2.525 -7.057 -3.948 106 96 97
-2.696 -6.990 -3.946 110 100 101
-2.865 -6.917 -3.942 109 99 100
-3.030 -6.836 -3.934 108 98 99
-3.191 -6.748 -3.924 111 101 102
-3.348 -6.652 -3.910 108 98 99
-3.501 -6.549 -3.894 108 96 96
-3.649 -6.441 -3.875 105 95 94
-3.792 -6.327 -3.855 102 94 92
-3.932 -6.209 -3.832 102 94 92
-4.060 -6.077 -3.800 97 92 89
-4.155 -5.900 -3.727 104 95 96
-4.239 -5.716 -3.648 86 77 78
-4.327 -5.545 -3.583 100 91 92
-4.421 -5.387 -3.531 84 78 78
-4.534 -5.256 -3.509 67 63 64
-4.655 -5.136 -3.501 57 55 56
-4.777 -5.017 -3.498 57 57 57
-4.896 -4.896 -3.495 55 56 58
-5.013 -4.773 -3.494 50 54 57
-5.333 -4.834 -3.712 31 36 40
-5.686 -4.905 -3.959 2 9 15
-5.877 -4.823 -4.034 5 10 14
-6.047 -4.719 -4.088 5 8 13
-6.200 -4.598 -4.126 1 4 11
-6.336 -4.462 -4.151 6 9 18
-6.319 -4.222 -4.031 45 48 55
-6.253 -3.959 -3.874 45 48 55
-6.492 -3.891 -4.007 53 56 63
-6.761 -3.830 -4.167 39 42 49
-7.086 -3.788 -4.377 31 35 44
-7.223 -3.636 -4.418 18 22 31
-7.330 -3.467 -4.435 12 16 25
-7.425 -3.291 -4.446 17 21 30
-7.510 -3.111 -4.451 21 26 30
-7.576 -2.922 -4.444 105 110 113
-7.638 -2.733 -4.438 123 127 128
-7.691 -2.541 -4.428 20 22 21
-7.739 -2.348 -4.418 97 97 95
-7.783 -2.154 -4.409 23 23 23
-7.822 -1.959 -4.399 71 72 76
-7.850 -1.763 -4.385 42 45 52
-7.877 -1.567 -4.374 17 20 27
-7.905 -1.372 -4.368 34 37 44
-7.918 -1.174 -4.353 43 47 50
-7.927 -0.978 -4.339 35 39 40
-7.932 -0.781 -4.326 31 35 34
-7.933 -0.585 -4.313 33 37 38
-7.925 -0.389 -4.297 24 28 29
-7.917 -0.194 -4.286 23 27 28
-7.902 -0.000 -4.272 38 42 43
-7.880 0.193 -4.256 41 42 44
-7.852 0.386 -4.239 41 42 44
-7.818 0.577 -4.222 38 39 41
-7.784 0.767 -4.207 46 47 49
-7.741 0.955 -4.191 42 43 47
-7.689 1.141 -4.169 34 35 39
-7.630 1.324 -4.146 26 27 31
-7.555 1.503 -4.114 17 18 22
-7.487 1.681 -4.090 16 17 22
-7.422 1.859 -4.073 22 23 28
-7.371 2.040 -4.070 20 21 26
-7.314 2.219 -4.066 41 42 46
-7.244 2.393 -4.055 45 46 50
-7.171 2.566 -4.045 42 43 47
-7.100 2.739 -4.039 42 43 47
-7.023 2.909 -4.033 34 35 39
-6.947 3.080 -4.031 31 32 36
-6.869 3.249 -4.031 23 24 28
-6.781 3.413 -4.025 28 29 33
-6.688 3.575 -4.019 43 43 45
-6.593 3.735 -4.014 26 26 28
-6.503 3.898 -4.018 14 17 22
-6.416 4.063 -4.027 11 18 26
-6.319 4.222 -4.032 21 24 31
-6.215 4.377 -4.033 29 32 37
-6.097 4.522 -4.025 89 90 92
-5.972 4.661 -4.012 130 130 130
-5.840 4.793 -3.996 61 63 60
-5.703 4.920 -3.978 106 111 107
-5.564 5.043 -3.960 131 135 134
-5.415 5.156 -3.934 30 34 35
-5.257 5.257 -3.901 71 71 69
-4.509 4.736 -3.190 106 103 98
-4.253 4.692 -3.026 118 113 107
-4.117 4.773 -3.003 125 116 107
-3.986 4.856 -2.986 124 117 109
-3.853 4.937 -2.970 122 115 105
-3.719 5.014 -2.954 122 115 105
-3.584 5.089 -2.940 122 116 104
-3.451 5.164 -2.930 122 115 105
-3.315 5.235 -2.918 120 113 103
-3.179 5.304 -2.907 122 113 106
-3.042 5.370 -2.898 122 111 107
-2.903 5.431 -2.888 121 110 106
-2.762 5.487 -2.876 119 110 105
-2.622 5.543 -2.867 118 111 105
-2.481 5.596 -2.858 116 111 105
-2.338 5.645 -2.849 117 112 106
-2.194 5.688 -2.839 117 113 104
-2.049 5.727 -2.827 116 112 103
-1.903 5.761 -2.815 116 112 101
-1.757 5.791 -2.803 115 110 104
-1.610 5.818 -2.791 115 110 104
-1.463 5.841 -2.779 114 109 103
-1.316 5.859 -2.766 113 108 102
-1.168 5.872 -2.752 115 108 102
-1.021 5.883 -2.739 113 108 102
-0.874 5.891 -2.727 112 109 102
-0.727 5.896 -2.715 111 108 101
-0.580 5.892 -2.699 109 109 101
-0.434 5.887 -2.685 108 108 100
-0.289 5.883 -2.675 109 106 99
-0.144 5.869 -2.659 110 105 99
0.000 8.307 -4.818 44 49 52
0.203 8.288 -4.804 47 52 55
0.407 8.275 -4.800 46 51 54
0.608 8.246 -4.786 49 54 57
0.810 8.225 -4.783 50 56 56
1.010 8.190 -4.772 54 60 60
1.210 8.159 -4.769 58 64 64
1.409 8.119 -4.762 52 58 58
1.605 8.068 -4.751 52 60 63
1.801 8.021 -4.746 50 59 64
1.996 7.969 -4.742 51 60 65
2.189 7.911 -4.736 52 61 66
2.381 7.848 -4.730 53 63 64
2.569 7.777 -4.722 56 66 65
2.756 7.703 -4.715 56 66 65
2.941 7.624 -4.707 55 65 64
3.124 7.541 -4.699 57 65 67
3.303 7.451 -4.688 58 66 69
3.479 7.356 -4.678 59 67 70
3.653 7.257 -4.668 60 68 71
3.824 7.154 -4.657 63 71 74
3.992 7.046 -4.646 60 68 71
4.156 6.934 -4.635 63 71 74
4.317 6.817 -4.622 63 71 74
4.474 6.696 -4.609 63 68 72
4.628 6.571 -4.596 63 68 72
4.777 6.441 -4.581 63 68 72
4.924 6.309 -4.568 64 69 73
5.067 6.174 -4.555 64 72 75
5.206 6.035 -4.541 60 68 71
5.342 5.894 -4.528 62 70 73
5.475 5.750 -4.516 60 68 71
5.603 5.603 -4.503 63 68 72
5.727 5.453 -4.490 64 69 73
5.848 5.301 -4.478 64 69 73
5.967 5.147 -4.467 62 67 71
6.080 4.990 -4.455 62 67 71
6.191 4.831 -4.444 61 69 72
6.296 4.670 -4.433 63 71 74
6.399 4.507 -4.423 60 68 71
6.497 4.341 -4.413 62 67 70
6.591 4.174 -4.403 62 67 71
6.679 4.003 -4.391 64 69 73
6.762 3.831 -4.378 64 69 73
6.842 3.657 -4.367 64 69 73
6.918 3.482 -4.356 65 70 74
6.990 3.306 -4.346 69 74 78
7.057 3.128 -4.335 67 72 76
7.120 2.949 -4.324 64 69 73
7.177 2.769 -4.313 64 69 73
7.231 2.587 -4.303 66 71 75
7.281 2.405 -4.293 65 70 74
7.326 2.222 -4.283 64 69 73
7.367 2.039 -4.274 66 71 75
7.404 1.855 -4.264 63 68 72
7.437 1.670 -4.255 64 69 73
7.465 1.485 -4.246 63 71 74
7.486 1.299 -4.236 65 70 76
7.503 1.113 -4.225 66 69 76
7.514 0.927 -4.214 69 72 79
7.522 0.741 -4.203 67 70 75
7.527 0.555 -4.194 67 70 75
7.528 0.370 -4.185 68 71 76
7.525 0.185 -4.178 68 71 76
7.519 0.000 -4.171 68 71 76
7.508 -0.184 -4.163 67 72 76
7.492 -0.368 -4.156 64 69 73
7.473 -0.551 -4.149 66 71 75
7.449 -0.734 -4.143 62 67 71
7.423 -0.916 -4.138 62 69 75
7.393 -1.097 -4.134 64 71 79
7.357 -1.277 -4.128 67 74 82
7.315 -1.455 -4.121 66 73 81
7.267 -1.632 -4.113 65 72 78
7.216 -1.807 -4.105 68 73 79
7.159 -1.981 -4.096 71 74 79
7.098 -2.153 -4.087 67 70 75
7.035 -2.324 -4.080 71 74 79
6.970 -2.494 -4.075 70 73 78
6.901 -2.662 -4.070 71 74 79
6.829 -2.828 -4.066 73 77 80
6.751 -2.993 -4.061 74 78 81
6.671 -3.155 -4.056 78 82 85
6.585 -3.315 -4.050 77 81 84
6.496 -3.472 -4.045 73 76 83
6.403 -3.627 -4.039 74 77 82
6.306 -3.780 -4.033 75 79 82
6.204 -3.928 -4.026 77 81 84
6.097 -4.074 -4.018 80 81 85
5.986 -4.216 -4.009 81 82 86
5.871 -4.355 -3.999 82 83 85
5.753 -4.490 -3.989 83 85 84
5.633 -4.622 -3.980 85 85 87
5.509 -4.752 -3.971 89 89 91
5.385 -4.881 -3.965 89 89 89
5.263 -5.011 -3.964 89 89 87
5.138 -5.138 -3.963 91 89 90
5.090 -5.346 -4.058 75 73 74
5.233 -5.773 -4.394 85 85 85
5.256 -6.093 -4.604 96 98 97
5.177 -6.308 -4.697 148 147 145
5.013 -6.424 -4.687 126 125 123
4.832 -6.516 -4.657 109 108 106
4.662 -6.619 -4.644 110 109 107
4.494 -6.726 -4.639 103 99 96
4.326 -6.831 -4.635 103 99 96
4.152 -6.928 -4.629 106 101 98
3.975 -7.017 -4.619 105 97 95
3.798 -7.105 -4.611 108 96 96
3.616 -7.184 -4.601 104 92 92
3.433 -7.258 -4.589 106 92 91
3.248 -7.328 -4.578 107 92 89
3.063 -7.394 -4.568 107 93 90
2.876 -7.456 -4.559 108 94 91
2.688 -7.513 -4.549 109 95 92
2.499 -7.565 -4.538 108 94 91
2.310 -7.614 -4.529 109 93 93
2.119 -7.658 -4.521 109 93 93
1.928 -7.698 -4.513 110 96 95
1.737 -7.734 -4.505 108 97 95
1.544 -7.763 -4.496 108 97 95
1.351 -7.788 -4.487 107 96 94
1.158 -7.809 -4.479 107 96 94
0.966 -7.828 -4.473 108 97 95
0.772 -7.843 -4.468 106 94 94
0.579 -7.852 -4.461 106 94 94
0.386 -7.855 -4.454 107 95 95
0.193 -7.853 -4.447 105 93 93
0.000 -7.847 -4.440 106 94 94
-0.192 -7.837 -4.434 106 94 94
-0.384 -7.822 -4.427 103 91 91
-0.575 -7.801 -4.420 106 94 94
-0.766 -7.776 -4.413 110 100 99
-0.956 -7.749 -4.407 103 93 92
-1.145 -7.718 -4.403 102 92 91
-1.333 -7.683 -4.399 105 95 94
-1.520 -7.642 -4.394 103 93 92
-1.705 -7.594 -4.387 107 97 96
-1.890 -7.543 -4.382 107 97 96
-2.072 -7.487 -4.376 105 95 94
-2.253 -7.427 -4.370 106 96 97
-2.432 -7.362 -4.363 106 96 97
-2.609 -7.293 -4.357 105 95 96
-2.785 -7.221 -4.352 111 101 102
-2.959 -7.144 -4.346 111 101 102
-3.130 -7.062 -4.339 110 100 101
-3.299 -6.974 -4.331 109 99 100
-3.463 -6.879 -4.321 109 99 100
-3.624 -6.781 -4.310 108 98 97
-3.783 -6.678 -4.299 107 97 96
-3.940 -6.573 -4.289 101 89 89
-4.091 -6.461 -4.276 99 87 87
-4.241 -6.347 -4.264 105 91 90
-4.386 -6.227 -4.251 102 88 85
-4.530 -6.108 -4.241 99 85 82
-4.671 -5.986 -4.231 106 92 89
-4.801 -5.850 -4.211 106 97 92
-4.919 -5.703 -4.181 104 95 90
-5.015 -5.534 -4.129 100 93 87
-5.070 -5.325 -4.034 104 99 93
-5.109 -5.109 -3.929 95 94 92
-5.199 -4.949 -3.891 22 22 22
-5.317 -4.819 -3.889 22 23 25
-5.518 -4.760 -3.981 13 17 20
-5.723 -4.697 -4.076 7 10 15
-5.885 -4.592 -4.126 10 11 16
-5.965 -4.424 -4.095 11 11 19
-5.993 -4.221 -4.015 14 14 24
-6.060 -4.049 -3.981 12 15 24
-6.164 -3.904 -3.988 9 12 21
-6.255 -3.749 -3.985 12 15 24
-6.367 -3.607 -4.006 13 16 25
-6.677 -3.569 -4.213 14 18 27
-7.102 -3.575 -4.525 11 15 24
-7.225 -3.417 -4.559 10 14 23
-7.325 -3.247 -4.575 14 18 27
-7.410 -3.069 -4.582 18 25 31
-7.483 -2.886 -4.582 27 34 40
-7.543 -2.699 -4.575 93 98 102
-7.592 -2.508 -4.562 20 24 27
-7.641 -2.318 -4.553 109 111 108
-7.683 -2.126 -4.542 103 105 104
-7.717 -1.933 -4.529 47 50 55
-7.740 -1.738 -4.510 27 31 43
-7.749 -1.541 -4.484 14 18 27
-7.707 -1.337 -4.420 13 17 26
-7.241 -1.074 -4.007 13 17 28
-7.206 -0.889 -3.959 14 18 29
-7.198 -0.709 -3.936 10 17 25
-7.184 -0.530 -3.912 11 18 26
-7.176 -0.353 -3.896 10 17 25
-7.170 -0.176 -3.886 10 17 25
-7.159 -0.000 -3.875 9 18 25
-7.136 0.175 -3.858 9 18 25
-7.107 0.349 -3.840 8 17 24
-7.073 0.522 -3.820 7 16 23
-7.030 0.692 -3.797 13 17 26
-6.988 0.862 -3.779 13 17 28
-6.951 1.031 -3.767 12 16 27
-6.918 1.200 -3.762 12 16 27
-6.880 1.368 -3.757 11 18 28
-6.836 1.535 -3.750 9 18 27
-6.788 1.700 -3.743 8 17 26
-6.732 1.863 -3.732 8 17 26
-6.666 2.022 -3.717 12 16 25
-6.596 2.179 -3.701 14 18 27
-6.528 2.336 -3.690 14 18 27
-6.465 2.494 -3.687 14 18 27
-6.408 2.654 -3.693 16 20 29
-6.344 2.812 -3.695 21 25 34
-6.271 2.966 -3.693 20 24 33
-6.192 3.117 -3.689 23 27 36
-6.108 3.265 -3.683 28 31 40
-6.042 3.423 -3.699 35 38 47
-6.274 3.761 -4.003 42 46 57
-6.314 3.998 -4.134 8 15 25
-6.229 4.162 -4.148 13 17 26
-6.133 4.319 -4.156 18 23 29
-6.025 4.468 -4.156 29 33 36
-5.903 4.607 -4.145 82 83 85
-5.771 4.736 -4.127 65 69 68
-5.638 4.863 -4.110 84 88 87
-5.500 4.985 -4.091 18 22 23
-5.333 5.077 -4.043 22 26 29
-4.692 4.692 -3.446 72 72 72
-4.537 4.765 -3.399 89 85 84
-4.401 4.856 -3.378 109 105 104
-4.271 4.951 -3.366 124 119 116
-4.139 5.043 -3.354 118 113 109
-4.002 5.128 -3.339 117 112 106
-3.864 5.210 -3.324 118 114 105
-3.725 5.289 -3.309 116 112 103
-3.587 5.369 -3.299 125 116 109
-3.445 5.441 -3.285 123 114 109
-3.305 5.514 -3.276 124 113 109
-3.161 5.581 -3.264 125 111 108
-3.017 5.645 -3.253 122 111 107
-2.872 5.706 -3.242 121 112 107
-2.726 5.764 -3.233 119 112 106
-2.579 5.819 -3.224 115 110 104
-2.432 5.871 -3.215 117 110 104
-2.282 5.917 -3.205 119 112 104
-2.132 5.958 -3.193 118 111 103
-1.981 5.995 -3.182 118 111 101
-1.829 6.029 -3.170 118 111 105
-1.676 6.058 -3.158 120 113 107
-1.523 6.082 -3.146 117 110 104
-1.370 6.101 -3.132 117 110 104
-1.216 6.115 -3.117 118 111 105
-1.063 6.127 -3.103 113 108 102
-0.910 6.135 -3.090 114 111 104
-0.757 6.140 -3.077 113 110 103
-0.604 6.136 -3.060 114 111 104
-0.452 6.130 -3.045 111 108 101
-0.301 6.125 -3.033 110 107 100
-0.150 6.108 -3.014 106 106 98
0.000 8.498 -5.210 43 48 52
0.208 8.482 -5.199 47 52 56
0.416 8.466 -5.192 47 52 56
0.623 8.440 -5.181 50 55 59
0.829 8.415 -5.174 47 56 55
1.034 8.382 -5.166 49 58 57
1.238 8.345 -5.158 52 61 60
1.440 8.301 -5.148 52 61 60
1.641 8.251 -5.138 53 61 63
1.842 8.202 -5.132 52 60 62
2.041 8.148 -5.127 52 60 62
2.238 8.087 -5.119 53 61 63
2.433 8.021 -5.112 55 64 63
2.626 7.948 -5.102 55 64 63
2.817 7.872 -5.094 54 63 62
3.005 7.791 -5.085 58 67 66
3.191 7.704 -5.075 54 64 66
3.374 7.612 -5.064 56 65 70
3.554 7.514 -5.052 55 64 69
3.731 7.413 -5.041 56 65 70
3.907 7.309 -5.031 61 71 73
4.079 7.201 -5.022 58 68 70
4.249 7.089 -5.012 58 68 70
4.414 6.971 -5.000 58 68 70
4.577 6.849 -4.989 59 66 72
4.736 6.724 -4.978 59 66 72
4.890 6.593 -4.964 59 66 72
5.040 6.458 -4.951 60 67 73
5.187 6.320 -4.937 62 67 73
5.329 6.178 -4.923 61 66 72
5.469 6.034 -4.909 59 64 70
5.605 5.887 -4.896 62 67 73
5.737 5.737 -4.883 60 67 73
5.864 5.583 -4.870 61 68 74
5.989 5.428 -4.858 62 69 75
6.110 5.270 -4.846 60 67 73
6.226 5.110 -4.833 58 66 69
6.338 4.947 -4.822 60 70 72
6.448 4.782 -4.811 60 70 72
6.553 4.615 -4.800 60 70 72
6.654 4.446 -4.790 61 69 71
6.751 4.275 -4.779 61 69 72
6.842 4.101 -4.768 61 68 74
6.928 3.925 -4.756 61 68 76
7.011 3.747 -4.744 62 69 75
7.089 3.568 -4.733 63 70 76
7.163 3.388 -4.722 65 72 78
7.232 3.206 -4.711 64 71 77
7.296 3.022 -4.701 62 69 75
7.356 2.837 -4.689 62 69 75
7.411 2.652 -4.678 63 70 76
7.463 2.465 -4.668 62 69 75
7.508 2.278 -4.657 63 68 72
7.549 2.089 -4.646 64 69 72
7.586 1.900 -4.635 63 68 71
7.619 1.711 -4.625 64 69 72
7.648 1.521 -4.616 62 70 73
7.670 1.331 -4.605 64 69 75
7.689 1.141 -4.595 65 68 77
7.703 0.950 -4.585 68 70 82
7.713 0.760 -4.576 66 69 78
7.720 0.569 -4.567 65 69 78
7.722 0.379 -4.559 65 69 78
7.719 0.189 -4.551 65 69 78
7.712 0.000 -4.543 64 68 77
7.699 -0.189 -4.534 62 69 77
7.683 -0.377 -4.526 62 69 77
7.661 -0.565 -4.518 63 70 78
7.637 -0.752 -4.511 62 70 73
7.608 -0.938 -4.504 62 71 76
7.575 -1.124 -4.497 63 72 79
7.539 -1.308 -4.492 64 73 80
7.498 -1.492 -4.487 64 73 80
7.453 -1.674 -4.481 65 72 78
7.402 -1.854 -4.475 68 72 81
7.346 -2.033 -4.467 68 72 81
7.286 -2.210 -4.460 67 71 80
7.223 -2.386 -4.454 69 73 82
7.157 -2.561 -4.450 69 73 82
7.087 -2.734 -4.445 70 74 83
7.012 -2.905 -4.440 72 75 80
6.933 -3.073 -4.434 72 75 80
6.849 -3.239 -4.428 72 75 80
6.761 -3.403 -4.422 72 75 80
6.668 -3.564 -4.415 72 75 82
6.572 -3.723 -4.408 73 76 81
6.471 -3.879 -4.401 75 79 82
6.366 -4.031 -4.393 77 81 84
6.258 -4.181 -4.386 80 81 85
6.145 -4.328 -4.377 81 82 86
6.029 -4.471 -4.368 82 83 85
5.907 -4.610 -4.358 83 85 84
5.785 -4.747 -4.349 85 85 87
5.658 -4.881 -4.340 86 86 88
5.531 -5.013 -4.333 84 84 84
5.402 -5.143 -4.328 84 84 82
5.273 -5.273 -4.326 82 80 81
5.178 -5.439 -4.372 90 88 89
5.203 -5.740 -4.573 66 66 66
5.242 -6.077 -4.810 103 105 104
5.209 -6.347 -4.966 57 55 56
5.114 -6.553 -5.052 97 95 96
4.968 -6.698 -5.075 118 116 117
4.797 -6.811 -5.068 125 123 124
4.617 -6.910 -5.051 100 100 98
4.445 -7.020 -5.050 105 104 100
4.272 -7.127 -5.050 107 103 100
4.090 -7.221 -5.041 105 101 98
3.905 -7.306 -5.029 107 97 96
3.718 -7.387 -5.017 104 93 91
3.530 -7.464 -5.005 105 91 88
3.341 -7.537 -4.995 106 91 86
3.149 -7.603 -4.982 107 92 87
2.957 -7.665 -4.970 107 92 87
2.763 -7.721 -4.957 107 92 87
2.568 -7.773 -4.945 104 89 84
2.373 -7.821 -4.935 108 90 88
2.177 -7.866 -4.924 109 91 89
1.980 -7.904 -4.914 109 94 91
1.783 -7.939 -4.903 108 94 91
1.585 -7.968 -4.893 107 96 92
1.387 -7.993 -4.883 106 95 91
1.189 -8.016 -4.875 104 93 89
0.991 -8.035 -4.869 107 96 92
0.793 -8.050 -4.863 116 102 102
0.594 -8.059 -4.856 109 95 95
0.396 -8.064 -4.850 103 89 89
0.198 -8.064 -4.844 106 92 92
0.000 -8.059 -4.838 107 93 93
-0.198 -8.051 -4.833 107 93 93
-0.395 -8.038 -4.828 104 90 90
-0.592 -8.020 -4.823 105 91 91
-0.788 -7.997 -4.818 105 93 93
-0.983 -7.969 -4.812 106 96 95
-1.177 -7.937 -4.807 108 98 97
-1.371 -7.900 -4.803 104 94 93
-1.563 -7.857 -4.797 106 96 95
-1.754 -7.809 -4.790 107 97 96
-1.943 -7.756 -4.784 106 96 95
-2.130 -7.698 -4.777 108 98 97
-2.316 -7.635 -4.769 107 97 98
-2.498 -7.562 -4.757 105 95 96
-2.680 -7.490 -4.749 106 96 97
-2.859 -7.412 -4.741 111 101 102
-3.037 -7.331 -4.732 111 101 102
-3.212 -7.246 -4.725 110 100 101
-3.385 -7.157 -4.717 110 100 101
-3.555 -7.062 -4.708 110 100 101
-3.722 -6.964 -4.700 109 99 98
-3.889 -6.866 -4.695 107 97 96
-4.054 -6.764 -4.691 106 92 92
-4.216 -6.657 -4.686 105 89 90
-4.374 -6.546 -4.680 103 91 91
-4.529 -6.431 -4.673 98 86 86
-4.680 -6.311 -4.666 99 87 87
-4.827 -6.185 -4.656 97 85 85
-4.968 -6.053 -4.644 97 83 82
-5.103 -5.916 -4.629 96 82 81
-5.231 -5.772 -4.609 93 82 80
-5.352 -5.621 -4.585 97 86 84
-5.464 -5.464 -4.556 97 88 83
-5.568 -5.301 -4.523 109 102 96
-5.652 -5.123 -4.472 95 90 86
-5.708 -4.924 -4.396 89 85 82
-5.792 -4.753 -4.357 48 48 48
-5.886 -4.593 -4.334 11 12 14
-5.978 -4.434 -4.315 15 16 18
-6.058 -4.267 -4.287 16 17 21
-6.136 -4.100 -4.261 12 15 22
-6.226 -3.942 -4.252 9 12 19
-6.314 -3.785 -4.246 14 17 24
-6.410 -3.631 -4.251 13 16 23
-6.537 -3.494 -4.288 14 18 27
-6.806 -3.426 -4.465 13 17 26
-7.084 -3.351 -4.649 11 15 24
-7.210 -3.196 -4.691 10 14 23
-7.300 -3.024 -4.704 9 16 26
-7.376 -2.845 -4.707 13 20 28
-7.442 -2.663 -4.706 46 51 57
-7.495 -2.476 -4.697 30 35 41
-7.543 -2.288 -4.688 52 56 59
-7.580 -2.098 -4.673 22 26 29
-7.601 -1.904 -4.648 29 34 40
-7.598 -1.706 -4.607 17 24 32
-7.373 -1.467 -4.378 10 17 25
-7.218 -1.252 -4.215 10 17 25
-7.219 -1.071 -4.192 9 16 24
-7.226 -0.891 -4.177 10 17 25
-7.231 -0.712 -4.165 12 16 25
-7.235 -0.534 -4.155 12 16 25
-7.237 -0.356 -4.148 14 18 27
-7.234 -0.178 -4.140 11 15 24
-7.226 -0.000 -4.131 11 18 26
-7.210 0.177 -4.119 11 18 26
-7.186 0.353 -4.104 11 18 26
-7.158 0.528 -4.090 10 17 25
-7.128 0.702 -4.077 10 19 28
-7.098 0.875 -4.068 10 19 28
-7.066 1.048 -4.061 9 18 27
-7.030 1.220 -4.054 9 18 27
-6.991 1.391 -4.048 12 19 27
-6.949 1.560 -4.042 12 19 27
-6.902 1.729 -4.037 12 19 27
-6.850 1.896 -4.031 12 19 27
-6.790 2.060 -4.020 10 19 26
-6.724 2.221 -4.008 9 18 23
-6.656 2.381 -3.997 9 18 23
-6.586 2.541 -3.989 9 18 23
-6.516 2.699 -3.983 11 20 25
-6.440 2.855 -3.977 9 18 23
-6.360 3.008 -3.969 12 21 26
-6.279 3.161 -3.965 12 21 26
-6.197 3.312 -3.962 12 19 25
-6.116 3.465 -3.964 13 20 26
-6.032 3.615 -3.966 16 23 29
-6.159 3.900 -4.185 15 20 26
-6.119 4.089 -4.244 8 15 23
-6.031 4.247 -4.258 13 17 26
-5.936 4.402 -4.270 17 22 26
-5.828 4.548 -4.272 29 33 36
-5.706 4.683 -4.263 26 30 31
-5.575 4.809 -4.247 37 41 42
-5.420 4.913 -4.206 24 28 31
-5.165 4.918 -4.051 53 56 61
-4.810 4.810 -3.771 57 58 60
-4.676 4.912 -3.754 61 62 64
-4.545 5.015 -3.742 64 65 67
-4.411 5.113 -3.729 65 66 70
-4.274 5.208 -3.716 70 71 73
-4.130 5.293 -3.696 74 74 76
-3.988 5.377 -3.680 67 67 67
-3.845 5.459 -3.665 72 72 70
-3.702 5.540 -3.653 89 85 82
-3.557 5.616 -3.640 111 106 103
-3.409 5.687 -3.625 126 119 113
-3.261 5.757 -3.613 124 115 108
-3.114 5.825 -3.604 123 112 108
-2.964 5.889 -3.594 122 113 108
-2.814 5.951 -3.585 122 115 109
-2.664 6.009 -3.577 117 112 106
-2.511 6.063 -3.568 120 113 107
-2.357 6.111 -3.557 121 112 105
-2.202 6.154 -3.545 121 112 105
-2.045 6.192 -3.533 121 112 103
-1.889 6.228 -3.522 120 111 106
-1.732 6.257 -3.509 122 113 108
-1.574 6.282 -3.495 120 111 106
-1.415 6.303 -3.481 120 111 106
-1.257 6.318 -3.466 119 112 106
-1.099 6.331 -3.452 115 110 104
-0.940 6.339 -3.437 116 113 106
-0.782 6.344 -3.423 114 111 104
-0.625 6.343 -3.407 114 109 103
-0.468 6.339 -3.392 115 110 104
-0.311 6.335 -3.382 110 110 102
-0.155 6.319 -3.363 106 107 99
0.000 8.679 -5.611 48 54 54
0.213 8.664 -5.600 49 55 55
0.425 8.649 -5.594 48 53 56
0.636 8.623 -5.583 52 57 61
0.846 8.594 -5.573 49 57 59
1.056 8.559 -5.563 53 62 61
1.264 8.524 -5.557 54 63 62
1.472 8.484 -5.552 53 62 61
1.678 8.437 -5.544 54 62 64
1.884 8.388 -5.539 53 61 63
2.087 8.333 -5.534 54 62 64
2.289 8.271 -5.526 53 62 61
2.489 8.204 -5.518 54 62 64
2.686 8.130 -5.509 54 62 64
2.882 8.054 -5.502 57 65 67
3.075 7.972 -5.494 56 64 66
3.266 7.885 -5.484 56 64 67
3.453 7.790 -5.473 56 64 67
3.638 7.691 -5.461 58 66 69
3.820 7.589 -5.451 59 67 70
4.000 7.483 -5.441 60 68 71
4.176 7.372 -5.431 59 67 70
4.349 7.257 -5.419 58 66 69
4.519 7.136 -5.407 58 66 69
4.685 7.012 -5.395 58 66 69
4.848 6.883 -5.383 57 65 68
5.005 6.748 -5.368 57 65 68
5.159 6.611 -5.354 59 67 70
5.310 6.470 -5.341 58 63 69
5.458 6.327 -5.328 60 65 71
5.602 6.181 -5.315 60 65 71
5.742 6.031 -5.303 60 65 71
5.878 5.878 -5.290 58 66 69
6.009 5.721 -5.276 59 67 70
6.136 5.561 -5.262 61 69 72
6.259 5.399 -5.249 59 67 70
6.378 5.235 -5.236 60 65 69
6.495 5.069 -5.225 62 67 71
6.607 4.900 -5.214 61 69 72
6.716 4.730 -5.204 57 67 69
6.821 4.558 -5.194 59 66 74
6.920 4.382 -5.184 59 66 74
7.014 4.204 -5.171 62 69 77
7.103 4.024 -5.159 59 66 76
7.188 3.842 -5.147 61 68 78
7.268 3.659 -5.136 62 69 77
7.345 3.474 -5.125 63 70 76
7.416 3.287 -5.114 62 70 73
7.482 3.099 -5.102 60 67 73
7.544 2.910 -5.091 63 70 76
7.601 2.720 -5.079 60 67 73
7.654 2.529 -5.069 61 68 74
7.702 2.336 -5.058 59 66 72
7.744 2.143 -5.047 63 70 76
7.782 1.949 -5.036 61 68 74
7.817 1.755 -5.026 61 68 74
7.848 1.561 -5.017 60 67 75
7.871 1.366 -5.006 59 66 74
7.889 1.170 -4.994 62 69 79
7.902 0.975 -4.983 63 67 78
7.912 0.779 -4.972 62 66 77
7.920 0.584 -4.965 62 66 77
7.924 0.389 -4.957 66 70 81
7.922 0.194 -4.950 64 68 79
7.916 0.000 -4.942 62 71 80
7.903 -0.194 -4.933 60 69 74
7.885 -0.387 -4.924 57 66 71
7.865 -0.580 -4.916 61 68 78
7.841 -0.772 -4.909 62 72 74
7.813 -0.964 -4.903 61 71 73
7.781 -1.154 -4.898 65 74 79
7.745 -1.344 -4.894 62 71 76
7.704 -1.532 -4.889 62 71 76
7.657 -1.719 -4.882 62 71 76
7.604 -1.905 -4.875 63 72 77
7.546 -2.088 -4.867 64 71 77
7.485 -2.270 -4.859 64 69 75
7.421 -2.451 -4.854 65 70 76
7.352 -2.631 -4.848 67 72 78
7.279 -2.808 -4.842 69 74 80
7.201 -2.983 -4.836 69 72 79
7.119 -3.156 -4.829 74 74 84
7.034 -3.327 -4.823 73 73 83
6.943 -3.495 -4.817 72 72 82
6.849 -3.661 -4.811 70 73 82
6.751 -3.825 -4.805 71 74 81
6.649 -3.985 -4.798 73 76 81
6.543 -4.143 -4.792 77 81 84
6.432 -4.298 -4.784 78 79 84
6.317 -4.449 -4.776 80 81 86
6.197 -4.596 -4.766 82 83 88
6.074 -4.740 -4.757 83 84 88
5.949 -4.882 -4.749 84 84 86
5.823 -5.023 -4.744 87 87 89
5.691 -5.158 -4.736 84 84 86
5.556 -5.290 -4.728 85 85 87
5.420 -5.420 -4.722 68 68 66
5.291 -5.558 -4.730 101 101 99
5.206 -5.744 -4.799 70 72 71
5.193 -6.020 -4.973 92 93 95
5.158 -6.286 -5.131 56 57 61
5.086 -6.518 -5.250 54 55 59
4.996 -6.736 -5.355 60 59 64
4.917 -6.982 -5.489 83 83 83
4.786 -7.162 -5.554 182 184 179
4.610 -7.280 -5.557 179 181 176
4.405 -7.349 -5.514 145 145 143
4.206 -7.425 -5.484 108 104 105
4.016 -7.513 -5.471 100 95 92
3.825 -7.599 -5.461 107 99 96
3.631 -7.678 -5.448 108 99 94
3.436 -7.752 -5.436 106 95 91
3.239 -7.819 -5.422 101 90 84
3.041 -7.882 -5.409 104 91 85
2.841 -7.940 -5.396 105 92 86
2.640 -7.992 -5.382 107 92 89
2.439 -8.040 -5.368 109 94 91
2.237 -8.083 -5.355 100 86 83
2.034 -8.121 -5.342 101 90 86
1.831 -8.154 -5.329 104 95 90
1.628 -8.185 -5.318 101 93 90
1.425 -8.211 -5.308 103 93 92
1.221 -8.233 -5.299 101 91 90
1.018 -8.253 -5.293 104 94 93
0.814 -8.269 -5.287 105 95 94
0.611 -8.279 -5.281 104 92 92
0.407 -8.284 -5.274 104 92 92
0.203 -8.285 -5.268 105 93 93
0.000 -8.281 -5.262 103 91 91
-0.203 -8.273 -5.258 106 94 94
-0.406 -8.260 -5.253 98 86 86
-0.608 -8.242 -5.248 105 93 93
-0.809 -8.218 -5.241 100 88 88
-1.010 -8.188 -5.235 103 91 91
-1.210 -8.155 -5.230 101 89 89
-1.409 -8.118 -5.226 105 93 93
-1.606 -8.076 -5.221 103 93 91
-1.803 -8.029 -5.216 99 89 87
-1.998 -7.975 -5.210 102 92 90
-2.191 -7.917 -5.204 99 89 87
-2.382 -7.853 -5.196 108 98 97
-2.571 -7.782 -5.187 105 95 94
-2.757 -7.706 -5.177 111 101 100
-2.941 -7.625 -5.167 111 101 100
-3.124 -7.541 -5.158 106 96 95
-3.304 -7.454 -5.150 108 98 97
-3.481 -7.361 -5.141 110 100 99
-3.654 -7.260 -5.128 113 103 102
-3.827 -7.160 -5.120 112 102 101
-3.997 -7.056 -5.112 110 100 99
-4.166 -6.951 -5.106 111 101 100
-4.332 -6.840 -5.100 107 95 95
-4.494 -6.726 -5.094 105 93 93
-4.653 -6.607 -5.087 98 86 86
-4.810 -6.485 -5.081 102 90 90
-4.961 -6.358 -5.072 107 95 95
-5.109 -6.225 -5.063 103 91 91
-5.251 -6.087 -5.050 104 90 90
-5.387 -5.944 -5.035 106 94 94
-5.520 -5.798 -5.020 94 82 82
-5.648 -5.648 -5.004 100 91 86
-5.773 -5.497 -4.991 104 95 90
-5.892 -5.340 -4.974 107 100 94
-6.008 -5.183 -4.959 104 97 91
-6.121 -5.023 -4.944 101 96 92
-6.229 -4.861 -4.929 93 88 84
-6.310 -4.680 -4.890 94 89 85
-6.369 -4.486 -4.832 102 97 93
-6.413 -4.285 -4.764 93 94 89
-6.464 -4.093 -4.710 79 80 75
-6.507 -3.900 -4.653 42 42 42
-6.557 -3.714 -4.609 21 21 23
-6.642 -3.550 -4.605 22 26 29
-6.749 -3.397 -4.626 19 23 26
-6.881 -3.254 -4.675 17 21 24
-7.027 -3.115 -4.740 17 21 24
-7.148 -2.961 -4.785 4 12 15
-7.246 -2.795 -4.811 13 20 26
-7.314 -2.617 -4.813 15 22 30
-7.368 -2.434 -4.805 19 26 34
-7.409 -2.247 -4.790 16 23 33
-7.433 -2.057 -4.764 17 24 34
-7.426 -1.860 -4.714 19 26 36
-7.321 -1.644 -4.580 27 36 45
-7.301 -1.452 -4.529 30 37 45
-7.324 -1.271 -4.519 26 31 37
-7.347 -1.090 -4.514 28 33 39
-7.368 -0.909 -4.511 24 29 35
-7.381 -0.727 -4.505 22 29 35
-7.390 -0.545 -4.499 25 32 38
-7.395 -0.363 -4.493 26 33 39
-7.393 -0.181 -4.486 22 29 35
-7.386 -0.000 -4.477 28 33 39
-7.371 0.181 -4.466 28 33 39
-7.349 0.361 -4.452 28 33 39
-7.324 0.540 -4.440 29 34 40
-7.297 0.719 -4.431 29 38 45
-7.271 0.897 -4.425 27 38 44
-7.241 1.074 -4.420 23 34 40
-7.205 1.250 -4.413 24 35 41
-7.165 1.425 -4.406 27 36 43
-7.121 1.599 -4.400 25 34 43
-7.073 1.772 -4.394 22 31 40
-7.019 1.942 -4.387 25 34 43
-6.958 2.111 -4.376 28 37 42
-6.890 2.276 -4.364 31 40 45
-6.820 2.440 -4.352 32 41 46
-6.744 2.601 -4.339 35 44 49
-6.669 2.762 -4.330 41 48 54
-6.590 2.921 -4.322 43 50 56
-6.506 3.077 -4.312 40 47 53
-6.419 3.231 -4.302 36 43 49
-6.326 3.381 -4.291 30 35 38
-6.230 3.529 -4.279 27 31 34
-6.130 3.674 -4.268 20 24 27
-6.048 3.830 -4.278 14 18 21
-5.983 3.997 -4.310 10 14 17
-5.903 4.157 -4.332 7 11 14
-5.809 4.308 -4.343 10 14 17
-5.709 4.455 -4.351 12 16 17
-5.596 4.592 -4.348 17 18 22
-5.471 4.719 -4.337 18 19 24
-5.313 4.815 -4.288 56 57 62
-5.073 4.830 -4.142 62 63 68
-4.940 4.940 -4.127 79 79 77
-4.814 5.056 -4.122 83 82 78
-4.683 5.167 -4.116 76 75 71
-4.545 5.269 -4.102 71 70 66
-4.403 5.365 -4.086 74 72 75
-4.259 5.457 -4.070 75 73 76
-4.112 5.544 -4.053 79 77 80
-3.966 5.631 -4.040 79 77 80
-3.820 5.717 -4.030 82 82 80
-3.673 5.800 -4.020 88 89 84
-3.524 5.880 -4.011 101 100 96
-3.371 5.951 -3.998 125 122 117
-3.217 6.019 -3.985 142 133 124
-3.063 6.084 -3.974 117 107 95
-2.908 6.148 -3.965 118 108 96
-2.753 6.211 -3.958 124 116 103
-2.596 6.267 -3.948 123 117 105
-2.435 6.314 -3.935 121 114 104
-2.275 6.358 -3.922 122 115 105
-2.113 6.398 -3.909 118 112 100
-1.952 6.435 -3.897 117 110 104
-1.789 6.465 -3.883 121 113 111
-1.626 6.491 -3.869 120 112 110
-1.463 6.513 -3.854 120 112 110
-1.299 6.531 -3.840 116 108 105
-1.136 6.545 -3.825 117 109 106
-0.972 6.554 -3.811 124 117 111
-0.809 6.560 -3.796 120 113 105
-0.646 6.560 -3.780 120 109 103
-0.484 6.556 -3.765 119 110 103
-0.322 6.552 -3.753 113 106 98
-0.160 6.538 -3.735 111 108 99
0.000 8.846 -6.017 49 55 55
0.217 8.837 -6.012 47 53 53
0.433 8.818 -6.002 50 55 58
0.649 8.794 -5.992 50 55 59
0.863 8.765 -5.983 48 56 58
1.077 8.733 -5.975 52 61 60
1.290 8.696 -5.968 54 63 62
1.502 8.655 -5.962 53 62 61
1.712 8.607 -5.954 52 60 63
1.922 8.558 -5.950 53 61 63
2.130 8.503 -5.945 54 62 64
2.336 8.441 -5.938 53 62 61
2.541 8.375 -5.932 55 63 65
2.743 8.303 -5.925 55 63 65
2.944 8.227 -5.919 55 63 65
3.141 8.144 -5.911 54 62 64
3.336 8.054 -5.901 54 64 65
3.527 7.958 -5.889 54 64 65
3.716 7.857 -5.878 55 65 66
