ply
format ascii 1.0
element vertex 1644
property float x
property float y
property float z
property uchar red
property uchar green
property uchar blue
end_header
0.333 -4.483 1.741 66 47 41
0.296 -4.512 1.747 82 62 61
0.249 -4.539 1.755 121 104 97
0.245 -4.572 1.755 54 35 31
0.218 -4.600 1.758 102 85 78
0.210 -4.631 1.758 86 72 63
0.212 -4.666 1.757 58 45 39
0.199 -4.696 1.757 122 105 98
0.171 -4.721 1.761 45 26 19
0.147 -4.747 1.763 86 68 58
0.130 -4.775 1.765 113 95 83
0.119 -4.804 1.764 51 32 18
0.107 -4.833 1.764 92 72 61
0.132 -4.881 1.757 51 31 22
0.119 -4.911 1.756 106 86 75
0.184 -4.983 1.740 76 51 46
0.443 -5.170 1.682 78 67 45
0.548 -5.283 1.655 103 113 76
0.544 -5.336 1.651 45 55 30
0.531 -5.383 1.648 20 32 12
0.509 -5.426 1.647 37 46 25
0.477 -5.462 1.648 58 63 40
0.420 -5.477 1.655 31 35 10
0.335 -5.468 1.667 65 59 33
0.289 -5.487 1.672 105 88 68
0.277 -5.536 1.668 114 93 74
0.266 -5.588 1.662 143 125 105
0.732 -6.118 1.534 94 85 78
3.547 -9.166 0.780 84 84 84
0.142 -5.654 1.670 72 59 50
0.104 -5.678 1.671 93 75 51
0.107 -5.752 1.660 72 70 47
2.582 -8.997 0.918 128 113 106
2.552 -9.202 0.891 110 94 107
0.952 -7.189 1.359 122 112 102
-0.043 -5.857 1.661 185 167 129
-0.350 -5.457 1.753 129 107 86
-0.428 -5.392 1.770 137 121 96
-0.466 -5.388 1.774 112 92 67
-0.499 -5.391 1.777 143 126 100
-0.528 -5.399 1.778 97 81 58
-0.555 -5.412 1.778 95 79 63
-0.585 -5.418 1.779 142 130 104
-0.537 -5.613 1.743 111 113 92
-0.617 -5.502 1.767 105 94 76
-0.675 -5.433 1.783 125 117 94
-0.710 -5.419 1.787 93 91 66
-0.210 -7.169 1.456 151 160 141
-0.067 -7.958 1.311 172 112 111
-0.157 -7.980 1.311 159 95 95
-0.289 -7.817 1.346 27 22 19
-0.844 -5.482 1.782 60 62 59
-0.886 -5.410 1.797 83 75 64
-0.919 -5.373 1.804 83 70 51
-0.948 -5.356 1.808 99 94 74
-0.975 -5.349 1.810 104 93 75
-1.001 -5.341 1.812 103 94 79
-1.027 -5.327 1.815 99 91 80
-1.053 -5.308 1.818 58 53 47
-1.423 -5.690 1.741 239 216 202
-1.357 -5.320 1.809 116 94 73
-1.382 -5.312 1.809 150 137 105
-1.408 -5.309 1.808 142 121 90
-1.433 -5.303 1.808 107 91 65
-1.460 -5.300 1.807 122 107 76
-1.494 -5.315 1.802 96 85 57
-1.532 -5.334 1.796 110 106 61
-1.556 -5.321 1.796 112 106 82
-1.894 -5.932 1.669 85 92 51
-2.103 -6.227 1.604 114 126 62
-2.169 -6.236 1.597 86 97 39
-2.235 -6.240 1.590 126 137 81
-2.296 -6.233 1.586 142 154 92
-2.350 -6.214 1.583 60 75 10
-2.404 -6.193 1.581 64 72 25
-2.468 -6.184 1.575 137 143 79
-2.544 -6.188 1.566 90 93 14
-2.619 -6.187 1.558 131 135 59
-2.692 -6.181 1.550 83 90 23
-2.755 -6.160 1.545 64 76 26
-2.817 -6.136 1.541 66 74 35
-2.876 -6.108 1.537 73 88 47
-2.932 -6.075 1.534 40 56 20
-2.978 -6.032 1.533 89 100 70
-3.023 -5.987 1.532 48 58 23
-3.073 -5.946 1.530 44 55 25
-3.135 -5.915 1.525 48 61 18
-3.186 -5.873 1.522 70 82 42
-3.231 -5.826 1.521 96 108 68
-3.278 -5.779 1.518 87 96 49
-3.324 -5.732 1.516 122 135 82
-3.365 -5.680 1.515 61 76 37
-3.413 -5.632 1.512 54 67 23
-3.463 -5.584 1.508 99 110 50
-3.505 -5.531 1.505 74 84 34
-3.539 -5.473 1.505 28 38 4
-3.566 -5.412 1.505 29 39 15
-3.589 -5.349 1.505 30 43 25
-3.626 -5.292 1.503 33 47 11
-3.661 -5.233 1.501 87 101 48
-3.678 -5.168 1.502 36 46 9
-3.673 -5.096 1.506 49 58 41
-3.672 -5.027 1.510 25 35 26
-3.684 -4.962 1.511 26 35 30
-3.697 -4.897 1.511 27 37 29
-3.709 -4.832 1.512 25 36 22
-3.716 -4.767 1.513 36 46 35
-3.723 -4.701 1.513 27 37 28
-3.742 -4.637 1.511 19 30 14
-3.750 -4.572 1.511 37 51 18
-3.747 -4.506 1.513 39 52 26
-3.737 -4.439 1.515 36 47 30
-3.732 -4.374 1.517 28 40 18
-3.726 -4.309 1.518 26 39 13
-3.710 -4.244 1.521 27 38 21
-3.692 -4.180 1.524 21 31 22
-3.674 -4.117 1.526 26 36 25
-3.659 -4.054 1.528 20 28 13
-3.642 -3.992 1.530 22 36 13
-3.618 -3.932 1.533 31 46 17
-3.543 -3.881 1.545 33 41 17
-3.192 -3.888 1.608 65 65 41
-3.149 -3.844 1.614 99 97 74
-3.136 -3.793 1.614 79 77 56
-3.123 -3.743 1.614 55 57 44
-3.106 -3.693 1.614 42 47 40
-3.090 -3.644 1.614 30 35 29
-3.073 -3.595 1.614 39 44 38
-3.055 -3.546 1.614 46 51 47
-3.035 -3.498 1.614 24 30 28
-3.017 -3.449 1.614 16 20 23
-3.000 -3.400 1.613 20 24 25
-2.983 -3.349 1.612 46 50 35
-2.967 -3.299 1.610 68 66 43
-2.947 -3.250 1.609 86 79 61
-2.926 -3.200 1.608 88 81 63
-2.904 -3.152 1.607 82 76 52
-2.883 -3.102 1.605 94 93 63
-2.857 -3.055 1.604 65 64 34
-2.830 -3.008 1.603 79 76 45
-2.801 -2.964 1.602 83 78 46
-2.777 -2.914 1.600 101 94 52
-2.746 -2.869 1.599 126 114 72
-2.717 -2.822 1.597 107 95 55
-2.709 -2.755 1.590 108 105 62
-2.685 -2.701 1.586 67 64 23
-2.661 -2.646 1.582 104 105 63
-2.636 -2.589 1.578 63 69 23
-2.610 -2.532 1.573 99 104 48
-2.579 -2.479 1.569 118 117 53
-2.544 -2.430 1.566 111 112 54
-2.503 -2.386 1.564 98 103 47
-2.459 -2.346 1.563 85 85 31
-2.466 -2.230 1.545 117 113 42
-2.444 -2.150 1.535 161 150 71
-2.405 -2.093 1.530 111 101 14
-2.359 -2.046 1.527 69 69 9
-2.307 -2.008 1.525 81 84 39
-2.254 -1.971 1.524 66 72 34
-2.198 -1.939 1.523 41 52 20
-2.142 -1.907 1.522 49 59 24
-2.084 -1.877 1.521 56 70 11
-2.022 -1.858 1.522 78 90 42
-1.961 -1.839 1.523 81 91 39
-1.900 -1.820 1.523 68 77 20
-1.836 -1.809 1.525 59 65 17
-1.772 -1.799 1.526 78 79 45
-1.706 -1.798 1.529 66 67 36
-1.638 -1.810 1.534 66 64 41
-1.572 -1.822 1.539 75 69 55
-1.509 -1.819 1.540 83 71 49
-1.452 -1.785 1.536 151 139 79
-1.391 -1.768 1.534 148 139 62
-1.328 -1.761 1.534 153 143 84
-1.266 -1.753 1.534 80 74 14
-1.203 -1.746 1.533 96 94 35
-1.140 -1.744 1.533 72 70 29
-1.077 4.009 0.346 62 77 74
-0.874 3.977 0.351 24 36 34
-0.673 3.919 0.361 17 26 23
-0.475 3.858 0.371 59 68 65
-0.279 3.793 0.381 49 59 58
-0.086 3.726 0.390 59 70 66
0.104 3.652 0.399 61 74 67
0.291 3.574 0.409 67 80 71
0.475 3.494 0.418 59 70 62
0.655 3.405 0.427 41 51 43
0.828 3.299 0.440 44 54 46
0.992 3.169 0.457 77 84 77
1.139 2.998 0.481 65 65 57
-0.305 -1.970 1.510 62 60 47
-0.272 -2.059 1.525 30 33 22
-0.233 -2.120 1.533 27 33 31
-0.193 -2.174 1.540 23 34 28
-0.159 -2.237 1.549 20 32 28
-0.129 -2.303 1.559 31 39 28
-0.116 -2.398 1.575 63 59 32
-0.110 -2.500 1.592 52 46 12
-0.096 -2.577 1.604 56 56 30
-0.075 -2.637 1.612 41 44 25
-0.058 -2.699 1.621 57 55 34
-0.041 -2.758 1.629 93 76 50
-0.038 -2.833 1.641 111 97 50
0.611 -2.032 1.436 100 88 64
-0.042 -2.982 1.665 99 93 61
-0.045 -3.051 1.676 83 82 34
-0.032 -3.097 1.682 79 76 31
-0.022 -3.145 1.687 95 91 46
-0.016 -3.194 1.694 84 87 44
-0.022 -3.253 1.703 79 74 34
-0.048 -3.329 1.717 138 127 107
-0.062 -3.389 1.728 74 67 57
-0.003 -3.383 1.718 38 41 34
0.148 -3.303 1.685 44 49 43
0.367 -3.182 1.636 44 44 42
0.406 -3.209 1.633 41 37 38
0.439 -3.241 1.631 57 53 52
0.481 -3.268 1.627 46 41 38
0.516 -3.300 1.625 35 29 29
0.542 -3.338 1.624 26 20 22
0.570 -3.376 1.624 33 24 29
0.594 -3.416 1.623 31 27 26
0.618 -3.455 1.622 26 22 21
0.641 -3.496 1.622 24 20 19
0.671 -3.534 1.620 24 20 21
0.694 -3.575 1.619 26 26 28
0.723 -3.615 1.616 34 22 22
0.747 -3.656 1.615 70 48 50
0.746 -3.706 1.618 57 41 44
0.743 -3.757 1.622 54 39 46
0.747 -3.804 1.623 49 35 35
0.756 -3.850 1.624 50 33 41
0.757 -3.897 1.626 47 28 32
0.754 -3.944 1.629 61 43 41
0.751 -3.992 1.631 64 48 48
0.731 -4.041 1.636 36 18 18
0.715 -4.088 1.641 39 21 19
0.692 -4.135 1.646 68 42 43
0.666 -4.180 1.652 45 31 31
0.629 -4.225 1.660 63 38 41
0.563 -4.268 1.674 65 47 43
0.498 -4.309 1.687 58 46 32
0.445 -4.346 1.697 85 78 68
0.439 -4.383 1.698 48 36 22
0.465 -4.423 1.692 93 79 70
0.633 -4.477 1.658 90 67 61
0.686 -4.526 1.647 86 66 65
0.660 -4.566 1.651 65 54 58
0.652 -4.609 1.651 92 80 82
0.650 -4.652 1.650 73 64 67
0.650 -4.697 1.648 50 42 40
0.642 -4.739 1.647 78 69 64
0.627 -4.780 1.648 45 33 33
0.605 -4.819 1.650 57 42 49
0.570 -4.853 1.655 39 27 29
0.546 -4.890 1.657 43 31 31
0.529 -4.928 1.658 43 31 31
0.512 -4.967 1.658 46 35 33
0.491 -5.004 1.659 52 42 41
0.469 -5.040 1.660 45 36 39
0.459 -5.082 1.658 51 42 45
0.434 -5.117 1.659 39 24 29
0.461 -5.180 1.648 52 43 34
0.531 -5.272 1.627 79 82 55
0.548 -5.338 1.617 96 106 69
0.535 -5.386 1.614 41 53 31
0.519 -5.433 1.612 46 58 38
0.499 -5.478 1.610 33 39 29
0.475 -5.520 1.608 49 52 45
0.436 -5.551 1.611 34 30 19
0.392 -5.576 1.614 51 38 45
0.385 -5.634 1.608 32 16 26
0.327 -5.646 1.614 49 33 36
0.772 -6.158 1.480 28 19 24
3.557 -9.176 0.663 81 76 80
0.114 -5.623 1.647 35 26 27
0.073 -5.642 1.650 35 24 22
0.081 -5.720 1.637 40 28 28
2.633 -9.063 0.800 145 145 145
2.574 -9.232 0.781 72 83 75
0.921 -7.146 1.310 117 111 125
0.018 -5.947 1.608 114 101 85
-0.122 -5.817 1.645 66 55 51
-0.230 -5.723 1.672 83 66 59
-0.295 -5.689 1.684 104 86 72
-0.356 -5.658 1.696 125 103 89
-0.409 -5.636 1.704 127 103 91
-0.452 -5.630 1.709 158 132 133
-0.501 -5.608 1.717 129 105 95
-0.412 -5.913 1.654 160 145 138
-0.575 -5.611 1.722 131 113 103
-0.645 -5.516 1.745 177 151 138
-0.678 -5.518 1.747 140 111 97
-0.550 -6.048 1.639 166 155 137
-0.056 -7.997 1.239 161 70 87
-0.143 -8.038 1.235 188 134 147
-0.549 -6.660 1.521 66 51 8
-0.825 -5.579 1.742 146 115 110
-0.868 -5.512 1.757 91 59 48
-0.911 -5.431 1.774 133 101 86
-0.944 -5.389 1.783 93 64 48
-0.972 -5.379 1.786 103 74 56
-0.999 -5.373 1.788 138 109 91
-1.026 -5.345 1.794 69 41 27
-1.053 -5.308 1.801 81 54 43
-1.450 -5.799 1.694 255 235 222
-1.357 -5.321 1.791 127 114 97
-1.379 -5.304 1.793 96 88 67
-1.403 -5.296 1.793 115 104 82
-1.428 -5.290 1.793 116 108 85
-1.454 -5.286 1.792 85 82 51
-1.488 -5.301 1.786 84 79 57
-1.522 -5.313 1.782 60 64 39
-1.557 -5.323 1.777 82 81 60
-1.902 -5.948 1.635 104 110 66
-2.098 -6.219 1.569 112 128 65
-2.163 -6.226 1.562 83 98 43
-2.231 -6.233 1.554 122 135 89
-2.290 -6.224 1.549 84 94 41
-2.343 -6.203 1.547 86 95 50
-2.398 -6.184 1.544 94 105 65
-2.464 -6.178 1.537 97 104 60
-2.543 -6.187 1.526 107 118 49
-2.618 -6.186 1.517 133 135 70
-2.685 -6.173 1.510 74 80 16
-2.743 -6.146 1.507 80 90 40
-2.805 -6.123 1.502 42 48 14
-2.865 -6.097 1.497 94 107 54
-2.919 -6.062 1.494 47 59 19
-2.964 -6.019 1.494 52 62 28
-3.014 -5.980 1.491 80 93 39
-3.069 -5.943 1.488 105 116 74
-3.121 -5.904 1.484 52 63 31
-3.170 -5.861 1.482 43 56 30
-3.217 -5.816 1.479 34 49 18
-3.266 -5.771 1.476 84 95 53
-3.313 -5.724 1.474 56 66 29
-3.353 -5.673 1.472 37 50 24
-3.399 -5.624 1.469 48 64 28
-3.449 -5.576 1.465 82 95 39
-3.490 -5.523 1.463 58 70 20
-3.523 -5.465 1.462 51 64 34
-3.552 -5.406 1.462 44 57 37
-3.580 -5.345 1.461 22 33 17
-3.615 -5.288 1.459 19 29 5
-3.652 -5.230 1.456 39 49 22
-3.664 -5.163 1.458 36 44 29
-3.657 -5.091 1.464 21 31 22
-3.668 -5.026 1.465 23 33 24
-3.680 -4.961 1.466 18 28 19
-3.689 -4.895 1.467 21 28 20
-3.701 -4.831 1.468 24 33 16
-3.706 -4.765 1.469 30 38 27
-3.707 -4.699 1.471 23 29 25
-3.709 -4.633 1.473 8 16 3
-3.731 -4.570 1.470 85 101 56
-3.734 -4.505 1.470 51 65 32
-3.726 -4.439 1.473 32 43 26
-3.727 -4.374 1.473 41 54 28
-3.726 -4.309 1.473 105 120 81
-3.709 -4.244 1.476 31 44 16
-3.686 -4.181 1.481 32 42 31
-3.666 -4.118 1.484 30 40 31
-3.656 -4.055 1.485 33 42 25
-3.637 -3.993 1.487 35 49 26
-3.607 -3.933 1.491 35 47 23
-3.539 -3.882 1.503 46 51 29
-3.175 -3.891 1.575 87 84 65
-3.147 -3.844 1.578 71 69 46
-3.132 -3.794 1.579 57 56 35
-3.116 -3.745 1.579 65 69 55
-3.098 -3.696 1.580 43 49 45
-3.081 -3.647 1.580 49 49 47
-3.064 -3.598 1.580 9 15 13
-3.046 -3.549 1.580 28 32 31
-3.029 -3.500 1.580 32 30 31
-3.012 -3.451 1.579 26 27 29
-2.994 -3.402 1.578 18 24 24
-2.979 -3.351 1.576 32 35 26
-2.964 -3.300 1.574 69 66 51
-2.945 -3.250 1.573 94 87 69
-2.924 -3.202 1.572 96 88 67
-2.901 -3.154 1.570 56 51 29
-2.879 -3.105 1.569 84 83 62
-2.851 -3.059 1.568 51 47 22
-2.823 -3.014 1.568 51 53 32
-2.793 -2.970 1.567 53 51 26
-2.772 -2.917 1.564 105 93 51
-2.742 -2.872 1.563 100 88 48
-2.708 -2.831 1.562 154 141 106
-2.681 -2.781 1.559 89 81 42
-2.652 -2.734 1.557 99 96 53
-2.624 -2.684 1.554 133 132 88
-2.601 -2.627 1.549 82 83 39
-2.576 -2.571 1.543 106 108 59
-2.546 -2.519 1.540 85 84 40
-2.514 -2.467 1.535 104 101 56
-2.475 -2.424 1.533 96 94 45
-2.446 -2.365 1.527 71 75 25
-2.438 -2.272 1.513 83 86 29
-2.430 -2.172 1.497 146 141 73
-2.395 -2.110 1.490 111 103 20
-2.353 -2.057 1.485 98 99 21
-2.303 -2.016 1.483 75 82 30
-2.249 -1.980 1.481 85 91 45
-2.193 -1.950 1.481 49 55 9
-2.136 -1.919 1.480 44 56 6
-2.080 -1.887 1.479 49 61 15
-2.020 -1.864 1.479 25 36 0
-1.960 -1.842 1.479 75 83 42
-1.898 -1.823 1.479 40 48 9
-1.835 -1.811 1.481 57 64 31
-1.769 -1.810 1.484 27 31 6
-1.702 -1.816 1.489 36 38 17
-1.636 -1.820 1.493 59 56 37
-1.571 -1.824 1.496 85 79 67
-1.510 -1.812 1.496 57 50 21
-1.455 -1.760 1.487 87 76 14
-1.395 -1.730 1.483 159 143 66
-1.331 -1.730 1.485 86 70 0
-1.267 -1.735 1.487 146 131 36
-1.203 -1.743 1.489 116 102 39
-1.140 -1.757 1.492 63 57 33
-1.077 3.989 0.208 50 62 58
-0.874 3.958 0.214 59 71 67
-0.674 3.901 0.225 54 65 61
-0.476 3.840 0.235 69 78 75
-0.281 3.775 0.246 73 84 80
-0.088 3.707 0.256 70 82 78
0.101 3.634 0.266 70 83 76
0.288 3.557 0.276 59 72 63
0.472 3.477 0.285 34 46 36
0.651 3.385 0.297 34 46 36
0.824 3.282 0.310 33 45 35
0.988 3.154 0.328 47 59 49
1.150 3.032 0.343 74 84 75
-0.318 -2.011 1.477 50 58 47
-0.296 -2.126 1.499 23 34 20
-0.262 -2.196 1.511 22 33 25
-0.218 -2.234 1.515 22 28 18
-0.183 -2.292 1.523 39 42 33
-0.152 -2.352 1.533 32 33 25
-0.134 -2.435 1.547 55 50 30
-0.119 -2.516 1.561 40 33 5
-0.103 -2.589 1.573 58 56 33
-0.087 -2.656 1.584 61 63 42
-0.071 -2.719 1.594 54 50 23
-0.054 -2.777 1.602 111 99 47
-0.052 -2.852 1.615 104 95 26
0.649 -1.981 1.374 105 96 63
-0.052 -2.995 1.640 71 65 41
-0.052 -3.059 1.651 75 70 38
-0.040 -3.107 1.657 67 60 32
-0.030 -3.154 1.663 65 59 35
-0.023 -3.201 1.670 47 49 27
-0.026 -3.258 1.679 53 50 19
-0.043 -3.324 1.692 87 78 63
-0.049 -3.377 1.700 81 75 63
0.004 -3.376 1.692 47 50 41
0.093 -3.348 1.673 33 41 30
0.314 -3.223 1.619 41 42 37
0.373 -3.233 1.610 25 20 24
0.378 -3.284 1.616 26 26 28
0.394 -3.325 1.618 33 29 28
0.430 -3.355 1.615 37 36 34
0.460 -3.388 1.613 41 39 40
0.480 -3.426 1.613 23 24 26
0.498 -3.467 1.614 23 23 23
0.519 -3.505 1.614 34 34 34
0.533 -3.547 1.615 23 23 23
0.551 -3.587 1.615 24 24 24
0.560 -3.631 1.617 21 25 26
0.649 -3.643 1.600 35 26 27
0.724 -3.664 1.587 72 51 50
0.706 -3.720 1.594 36 22 21
0.678 -3.776 1.604 31 22 27
0.668 -3.826 1.609 35 26 21
0.680 -3.869 1.609 57 45 47
0.684 -3.913 1.610 24 12 12
0.680 -3.959 1.613 104 91 82
0.653 -4.009 1.621 82 67 60
0.646 -4.053 1.624 40 25 20
0.607 -4.101 1.634 110 96 85
0.618 -4.142 1.632 101 82 68
0.634 -4.183 1.629 59 46 37
0.601 -4.226 1.637 68 48 47
0.542 -4.269 1.650 64 51 45
0.504 -4.309 1.658 88 82 60
0.475 -4.347 1.665 95 92 73
0.501 -4.386 1.659 93 78 57
0.489 -4.424 1.661 135 116 101
0.666 -4.480 1.622 69 46 38
0.573 -4.512 1.641 67 52 45
0.488 -4.541 1.658 68 63 59
0.465 -4.576 1.662 72 67 63
0.459 -4.614 1.662 63 55 53
0.462 -4.654 1.659 70 62 59
0.458 -4.693 1.658 61 52 47
0.455 -4.733 1.657 55 44 42
0.512 -4.791 1.641 55 36 38
0.461 -4.817 1.650 54 35 31
0.409 -4.841 1.659 70 52 48
0.432 -4.891 1.651 66 48 46
0.432 -4.934 1.647 60 47 41
0.433 -4.978 1.643 68 55 47
0.431 -5.022 1.640 51 40 36
0.415 -5.060 1.639 35 25 24
0.377 -5.086 1.644 80 66 55
0.321 -5.101 1.653 105 92 75
0.418 -5.205 1.623 102 95 69
0.514 -5.316 1.593 117 112 80
0.519 -5.375 1.585 84 83 62
0.496 -5.417 1.584 28 30 8
0.447 -5.439 1.590 35 32 25
0.374 -5.441 1.602 53 48 44
0.292 -5.433 1.617 129 123 109
0.222 -5.429 1.629 67 58 51
0.207 -5.472 1.626 102 89 83
0.153 -5.480 1.633 167 154 137
0.624 -6.010 1.480 66 62 59
3.581 -9.202 0.541 73 69 70
0.033 -5.533 1.643 52 41 37
0.004 -5.562 1.643 72 55 47
-0.003 -5.617 1.634 62 46 30
2.673 -9.114 0.683 126 121 125
2.587 -9.249 0.672 117 123 121
0.652 -6.765 1.351 122 117 123
-0.060 -5.831 1.605 33 18 0
-0.095 -5.859 1.604 19 10 13
-0.169 -5.824 1.618 48 33 40
-0.238 -5.789 1.632 51 36 39
-0.271 -5.816 1.631 21 12 3
-0.302 -5.849 1.628 36 26 27
-0.337 -5.873 1.626 36 23 33
-0.390 -5.860 1.634 33 22 4
-0.364 -6.031 1.597 158 152 140
-0.503 -5.798 1.655 31 24 16
-0.585 -5.684 1.684 38 26 28
-0.624 -5.680 1.688 45 28 38
-0.589 -5.919 1.637 54 39 44
-0.021 -8.125 1.145 77 36 30
-0.125 -8.111 1.154 58 35 51
-0.656 -6.182 1.585 228 221 133
-0.737 -6.018 1.624 51 35 38
-0.775 -6.049 1.618 45 31 31
-0.816 -6.067 1.616 48 34 34
-0.863 -6.046 1.622 45 31 31
-0.904 -6.067 1.618 39 19 21
-0.946 -6.092 1.614 28 6 9
-0.989 -6.100 1.613 38 17 22
-1.033 -6.106 1.612 33 14 20
-1.077 -6.105 1.612 31 5 8
-1.121 -6.074 1.619 53 23 25
-1.162 -6.025 1.629 49 19 21
-1.201 -5.988 1.636 70 40 38
-1.240 -5.964 1.641 80 45 39
-1.276 -5.924 1.648 91 57 55
-1.309 -5.873 1.658 91 63 62
-1.326 -5.743 1.685 105 75 75
-1.342 -5.638 1.707 154 110 109
-1.359 -5.565 1.722 174 114 114
-1.493 -5.970 1.630 173 103 105
-1.405 -5.493 1.735 169 110 104
-1.389 -5.336 1.768 132 96 84
-1.410 -5.317 1.771 131 100 82
-1.436 -5.312 1.770 115 87 63
-1.463 -5.308 1.769 100 75 45
-1.494 -5.315 1.765 102 98 61
-1.528 -5.325 1.760 65 79 44
-1.571 -5.353 1.751 97 107 70
-1.933 -6.010 1.589 90 104 45
-2.093 -6.209 1.535 68 81 12
-2.160 -6.219 1.526 109 124 55
-2.223 -6.220 1.519 99 114 47
-2.282 -6.212 1.513 41 50 0
-2.334 -6.190 1.511 57 63 17
-2.385 -6.166 1.509 50 57 13
-2.435 -6.140 1.508 67 75 38
-2.508 -6.142 1.498 118 129 73
-2.607 -6.172 1.479 111 116 60
-2.672 -6.158 1.473 98 102 41
-2.719 -6.121 1.472 75 82 30
-2.782 -6.099 1.466 54 62 21
-2.847 -6.078 1.459 64 75 35
-2.899 -6.043 1.457 52 63 23
-2.946 -6.003 1.455 37 48 6
-2.998 -5.966 1.452 94 106 58
-3.049 -5.927 1.449 53 67 31
-3.092 -5.881 1.448 50 65 36
-3.138 -5.838 1.446 43 55 31
-3.186 -5.794 1.443 56 69 41
-3.233 -5.749 1.440 47 57 32
-3.278 -5.703 1.437 54 63 44
-3.321 -5.654 1.435 68 79 63
-3.370 -5.608 1.431 63 75 53
-3.424 -5.563 1.425 51 63 43
-3.466 -5.511 1.422 17 28 11
-3.501 -5.455 1.421 28 42 19
-3.536 -5.399 1.419 37 52 29
-3.568 -5.341 1.418 29 42 22
-3.598 -5.281 1.417 34 47 27
-3.623 -5.220 1.416 27 40 20
-3.636 -5.154 1.418 30 42 28
-3.643 -5.087 1.421 25 35 26
-3.655 -5.022 1.422 24 34 25
-3.662 -4.956 1.425 21 33 23
-3.669 -4.891 1.426 16 28 18
-3.681 -4.827 1.427 39 48 27
-3.687 -4.762 1.428 45 53 40
-3.688 -4.696 1.430 18 25 18
-3.689 -4.631 1.432 24 32 19
-3.710 -4.568 1.429 31 45 10
-3.714 -4.503 1.429 45 59 24
-3.711 -4.438 1.431 39 52 24
-3.713 -4.373 1.431 47 60 34
-3.714 -4.309 1.430 57 70 40
-3.699 -4.244 1.434 20 32 10
-3.674 -4.181 1.438 29 39 28
-3.654 -4.119 1.442 32 43 27
-3.642 -4.056 1.443 23 32 13
-3.625 -3.995 1.446 34 48 25
-3.592 -3.936 1.451 37 49 25
-3.459 -3.895 1.478 53 57 34
-3.169 -3.893 1.539 71 68 49
-3.144 -3.845 1.542 55 54 34
-3.129 -3.795 1.543 69 72 53
-3.111 -3.746 1.544 59 63 49
-3.093 -3.697 1.545 35 41 27
-3.074 -3.649 1.546 72 65 57
-3.059 -3.600 1.545 80 81 67
-3.041 -3.551 1.545 87 88 82
-3.023 -3.503 1.545 65 59 59
-3.005 -3.454 1.545 28 28 28
-2.988 -3.405 1.544 17 23 23
-2.972 -3.355 1.542 25 27 22
-2.958 -3.303 1.539 68 68 56
-2.941 -3.253 1.537 86 81 62
-2.920 -3.204 1.536 89 83 61
-2.898 -3.156 1.535 75 72 53
-2.875 -3.108 1.533 83 86 67
-2.846 -3.063 1.533 60 55 33
-2.816 -3.019 1.532 58 61 44
-2.786 -2.975 1.532 67 67 43
-2.764 -2.924 1.529 84 72 30
-2.731 -2.882 1.528 98 89 50
-2.697 -2.841 1.528 86 78 42
-2.664 -2.798 1.527 89 81 42
-2.632 -2.754 1.525 96 93 52
-2.600 -2.709 1.523 77 75 34
-2.571 -2.661 1.520 101 99 58
-2.540 -2.613 1.516 81 79 38
-2.511 -2.561 1.512 101 101 67
-2.479 -2.512 1.508 75 71 33
-2.447 -2.461 1.503 104 102 54
-2.415 -2.409 1.498 108 112 61
-2.398 -2.332 1.487 75 88 32
-2.398 -2.223 1.467 86 90 39
-2.379 -2.138 1.453 87 88 22
-2.341 -2.078 1.446 89 95 31
-2.292 -2.035 1.443 46 57 17
-2.242 -1.995 1.441 67 75 38
-2.188 -1.960 1.439 82 89 48
-2.133 -1.927 1.437 87 96 53
-2.075 -1.899 1.437 65 74 29
-2.016 -1.876 1.437 69 78 33
-1.956 -1.854 1.437 61 69 28
-1.894 -1.837 1.438 77 84 53
-1.831 -1.823 1.439 46 55 26
-1.767 -1.818 1.442 73 81 44
-1.701 -1.819 1.446 43 50 9
-1.635 -1.824 1.450 55 55 27
-1.572 -1.823 1.453 53 47 25
-1.511 -1.810 1.452 94 88 54
-1.452 -1.783 1.449 92 85 39
-1.391 -1.764 1.446 119 107 65
-1.329 -1.752 1.445 142 136 50
-1.266 -1.746 1.445 111 97 36
-1.203 -1.754 1.448 73 63 2
-1.140 -1.768 1.451 59 62 15
-1.077 3.964 0.071 53 66 59
-0.875 3.935 0.077 58 71 64
-0.675 3.877 0.089 46 57 51
-0.478 3.813 0.101 69 78 73
-0.284 3.749 0.112 71 82 76
-0.092 3.680 0.123 67 78 72
0.097 3.606 0.134 42 53 45
0.283 3.532 0.145 40 52 42
0.466 3.449 0.156 28 40 30
0.644 3.357 0.168 29 41 31
0.817 3.255 0.182 33 45 35
0.982 3.131 0.200 31 43 33
1.151 3.035 0.211 46 51 47
-0.111 -1.384 1.282 115 117 112
-0.316 -2.183 1.473 32 33 25
-0.287 -2.259 1.488 48 47 42
-0.228 -2.258 1.483 30 30 20
-0.184 -2.293 1.486 43 43 35
-0.146 -2.340 1.492 62 61 56
-0.123 -2.413 1.505 41 41 31
-0.100 -2.480 1.517 27 23 11
-0.074 -2.539 1.526 81 77 65
-0.049 -2.593 1.534 169 170 154
-0.028 -2.652 1.543 166 164 141
-0.006 -2.706 1.551 160 155 126
0.016 -2.756 1.557 166 161 131
0.774 -1.813 1.275 86 83 64
-0.003 -2.933 1.593 140 139 121
-0.029 -3.031 1.615 114 112 89
-0.022 -3.085 1.623 83 77 55
-0.020 -3.143 1.633 75 68 50
-0.022 -3.201 1.643 56 55 37
-0.025 -3.257 1.653 40 39 19
-0.039 -3.320 1.666 77 73 64
-0.040 -3.369 1.674 44 41 26
0.002 -3.378 1.668 53 55 42
0.069 -3.368 1.654 35 43 28
0.277 -3.252 1.599 53 54 48
0.347 -3.252 1.586 31 27 28
0.314 -3.329 1.603 17 17 17
0.306 -3.384 1.612 41 40 36
0.319 -3.425 1.615 49 50 44
0.337 -3.461 1.616 34 36 31
0.351 -3.500 1.617 30 35 31
0.365 -3.538 1.619 34 36 35
0.376 -3.577 1.621 29 30 34
0.378 -3.621 1.625 43 44 46
0.381 -3.662 1.628 41 44 37
0.403 -3.696 1.626 45 53 42
0.523 -3.692 1.600 53 48 44
0.704 -3.671 1.559 72 52 51
0.664 -3.734 1.573 53 42 38
0.591 -3.803 1.594 53 49 50
0.528 -3.865 1.612 58 52 40
0.497 -3.914 1.622 135 122 113
0.525 -3.949 1.617 59 50 41
0.411 -4.013 1.646 158 145 126
0.424 -4.048 1.645 106 90 77
0.429 -4.085 1.645 41 29 17
0.401 -4.126 1.653 74 68 42
0.406 -4.163 1.652 75 70 32
0.474 -4.194 1.637 124 109 86
0.536 -4.229 1.623 71 54 46
0.500 -4.270 1.632 65 56 47
0.481 -4.309 1.637 209 205 178
0.471 -4.347 1.639 58 56 33
0.517 -4.387 1.628 74 57 31
0.514 -4.426 1.628 80 58 37
0.648 -4.479 1.596 97 70 61
0.556 -4.510 1.616 56 38 24
0.434 -4.533 1.644 111 108 91
0.410 -4.567 1.648 69 66 51
0.388 -4.600 1.652 44 33 13
0.366 -4.633 1.655 96 84 58
0.338 -4.663 1.660 101 89 63
0.317 -4.695 1.663 132 121 101
0.348 -4.741 1.653 221 198 190
0.312 -4.768 1.659 57 30 21
0.285 -4.796 1.663 92 65 54
0.268 -4.828 1.664 56 37 31
0.225 -4.848 1.671 53 36 26
0.185 -4.868 1.678 117 101 86
0.165 -4.896 1.680 78 65 49
0.194 -4.948 1.668 101 88 80
0.166 -4.973 1.671 130 112 90
0.146 -5.001 1.672 113 98 69
0.147 -5.043 1.667 76 60 35
0.213 -5.125 1.644 128 106 85
0.163 -5.137 1.652 120 101 84
0.138 -5.164 1.654 177 165 141
0.144 -5.214 1.646 105 91 82
0.142 -5.260 1.640 62 45 37
0.116 -5.288 1.640 156 145 141
0.087 -5.313 1.641 93 81 67
0.050 -5.331 1.645 125 108 98
0.038 -5.370 1.641 65 44 23
0.510 -5.896 1.477 37 34 25
3.591 -9.212 0.422 91 83 80
-0.019 -5.476 1.633 59 40 26
-0.041 -5.510 1.630 92 68 42
-0.048 -5.563 1.622 115 96 56
2.680 -9.124 0.576 117 108 109
2.583 -9.244 0.567 84 84 92
0.294 -6.256 1.445 139 126 117
-0.192 -5.633 1.629 122 106 55
-0.250 -5.614 1.640 137 129 110
-0.310 -5.589 1.652 153 135 131
-0.353 -5.588 1.657 40 23 15
-0.377 -5.618 1.654 80 73 45
-0.403 -5.648 1.650 73 59 58
-0.427 -5.684 1.645 73 55 45
-0.436 -5.756 1.631 203 191 133
-0.371 -6.013 1.570 196 182 171
-0.501 -5.803 1.627 110 96 93
-0.568 -5.732 1.648 45 32 23
-0.611 -5.720 1.653 213 201 185
-0.111 -7.493 1.224 105 64 80
0.060 -8.417 1.006 69 66 47
-0.118 -8.138 1.080 56 42 55
-0.699 -5.993 1.597 246 225 116
-0.775 -5.826 1.639 37 32 36
-0.810 -5.851 1.635 32 30 33
-0.849 -5.848 1.637 35 33 36
-0.885 -5.868 1.634 37 35 38
-0.915 -5.951 1.615 40 35 41
-0.950 -6.038 1.596 36 34 39
-0.992 -6.040 1.596 29 27 32
-1.034 -6.059 1.592 32 31 36
-1.077 -6.067 1.590 29 26 33
-1.120 -6.052 1.593 28 24 25
-1.162 -6.040 1.596 30 26 23
-1.204 -6.026 1.598 31 26 32
-1.245 -6.013 1.601 27 26 32
-1.286 -6.000 1.603 33 37 40
-1.325 -5.983 1.605 27 33 33
-1.365 -5.967 1.608 34 34 34
-1.405 -5.959 1.608 71 70 75
-1.442 -5.931 1.612 52 46 48
-1.500 -5.996 1.594 46 32 29
-1.530 -5.946 1.604 38 31 25
-1.558 -5.894 1.614 67 52 59
-1.601 -5.893 1.611 39 22 28
-1.635 -5.867 1.614 41 25 26
-1.665 -5.834 1.619 42 27 24
-1.690 -5.789 1.626 43 19 17
-1.723 -5.767 1.628 39 23 23
-1.747 -5.724 1.635 48 27 24
-1.875 -5.895 1.586 64 47 27
-2.071 -6.167 1.509 121 123 86
-2.150 -6.203 1.492 50 67 15
-2.210 -6.198 1.486 95 117 55
-2.271 -6.194 1.480 83 93 40
-2.325 -6.176 1.476 110 118 71
-2.363 -6.135 1.479 90 100 50
-2.400 -6.093 1.482 99 109 74
-2.448 -6.066 1.480 30 43 0
-2.578 -6.137 1.448 134 140 96
-2.655 -6.137 1.437 103 100 47
-2.685 -6.083 1.442 85 78 32
-2.762 -6.078 1.430 72 77 37
-2.822 -6.054 1.425 68 76 39
-2.877 -6.022 1.421 66 75 30
-2.923 -5.982 1.419 62 73 17
-2.970 -5.942 1.417 65 74 29
-3.014 -5.899 1.416 68 79 45
-3.059 -5.856 1.414 42 52 25
-3.107 -5.814 1.411 36 45 24
-3.157 -5.774 1.407 74 82 59
-3.200 -5.727 1.405 47 56 35
-3.245 -5.682 1.402 37 49 29
-3.290 -5.635 1.398 35 44 27
-3.349 -5.596 1.391 64 73 52
-3.404 -5.553 1.385 36 48 26
-3.447 -5.501 1.381 39 51 27
-3.481 -5.446 1.380 30 43 15
-3.518 -5.390 1.378 39 51 27
-3.550 -5.333 1.376 48 60 40
-3.577 -5.273 1.375 42 53 36
-3.596 -5.210 1.376 43 54 37
-3.611 -5.146 1.378 26 38 18
-3.626 -5.082 1.379 54 61 45
-3.632 -5.016 1.382 46 53 37
-3.633 -4.949 1.386 28 36 21
-3.643 -4.885 1.387 27 38 24
-3.654 -4.821 1.387 39 48 27
-3.662 -4.757 1.388 34 43 24
-3.667 -4.693 1.390 50 58 45
-3.668 -4.628 1.391 28 36 25
-3.683 -4.565 1.390 34 45 28
-3.686 -4.501 1.390 27 40 10
-3.688 -4.437 1.391 39 53 17
-3.688 -4.373 1.391 41 53 33
-3.683 -4.309 1.392 20 31 15
-3.672 -4.245 1.395 23 34 18
-3.655 -4.182 1.398 36 47 31
-3.640 -4.120 1.401 37 49 29
-3.622 -4.058 1.404 20 29 10
-3.597 -3.998 1.408 30 44 21
-3.556 -3.941 1.416 43 55 31
-3.304 -3.922 1.473 70 74 51
-3.166 -3.893 1.503 63 64 46
-3.138 -3.846 1.508 62 65 48
-3.121 -3.797 1.509 51 53 39
-3.109 -3.746 1.508 48 52 37
-3.107 -3.693 1.505 48 54 28
-3.272 -3.584 1.461 73 57 42
-3.233 -3.537 1.466 80 71 38
-3.053 -3.547 1.506 31 30 26
-3.025 -3.502 1.508 70 67 62
-3.000 -3.456 1.510 26 26 26
-2.978 -3.410 1.510 18 24 24
-2.962 -3.360 1.508 23 25 22
-2.949 -3.308 1.505 54 55 47
-2.932 -3.258 1.503 78 76 61
-2.913 -3.209 1.501 84 81 62
-2.890 -3.160 1.500 77 76 58
-2.866 -3.114 1.498 56 59 42
-2.836 -3.070 1.498 64 62 41
-2.805 -3.027 1.498 57 61 46
-2.774 -2.985 1.498 53 53 29
-2.750 -2.936 1.495 99 90 47
-2.716 -2.895 1.495 76 68 29
-2.682 -2.854 1.495 82 74 38
-2.649 -2.812 1.494 103 98 58
-2.617 -2.769 1.492 108 104 66
-2.583 -2.727 1.491 106 104 66
-2.551 -2.682 1.488 96 94 56
-2.520 -2.637 1.485 79 77 39
-2.487 -2.590 1.482 84 80 51
-2.455 -2.544 1.478 71 71 37
-2.425 -2.492 1.473 91 94 47
-2.393 -2.440 1.467 106 110 59
-2.372 -2.370 1.456 74 89 32
-2.359 -2.284 1.441 69 81 35
-2.349 -2.186 1.423 81 89 38
-2.321 -2.114 1.412 91 100 55
-2.276 -2.065 1.407 58 66 42
-2.230 -2.018 1.402 40 48 24
-2.180 -1.977 1.399 43 53 19
-2.126 -1.943 1.397 43 51 14
-2.070 -1.912 1.395 56 64 23
-2.011 -1.887 1.395 70 78 37
-1.951 -1.867 1.395 44 51 17
-1.889 -1.850 1.396 58 63 41
-1.827 -1.836 1.398 58 65 49
-1.764 -1.827 1.400 24 33 6
-1.700 -1.824 1.403 62 69 35
-1.634 -1.831 1.408 23 25 11
-1.570 -1.830 1.411 39 37 14
-1.509 -1.821 1.411 61 58 27
-1.447 -1.813 1.412 60 58 33
-1.386 -1.802 1.411 31 29 14
-1.325 -1.789 1.410 46 47 13
-1.263 -1.793 1.412 56 56 20
-1.201 -1.796 1.413 39 40 24
-1.139 -1.802 1.415 30 38 14
-1.077 3.932 -0.064 48 61 52
-0.876 3.906 -0.058 57 70 61
-0.677 3.846 -0.045 25 36 28
-0.480 3.781 -0.032 101 111 103
-0.287 3.716 -0.020 46 56 48
-0.096 3.647 -0.008 45 55 47
0.092 3.576 0.003 32 42 33
0.278 3.500 0.015 37 47 36
0.459 3.414 0.028 30 43 33
0.637 3.323 0.041 39 52 42
0.808 3.218 0.056 47 60 50
0.972 3.095 0.076 45 58 48
1.142 3.007 0.085 39 44 38
0.171 -0.530 1.003 139 142 135
0.060 -1.129 1.154 223 230 222
0.325 -0.673 1.024 50 59 56
0.413 -0.710 1.024 41 56 53
0.505 -0.739 1.022 36 47 43
0.600 -0.763 1.018 54 60 60
0.690 -0.798 1.015 39 49 48
0.776 -0.842 1.015 33 43 44
0.861 -0.887 1.015 58 66 68
0.949 -0.928 1.013 42 51 48
1.034 -0.974 1.011 39 50 44
1.118 -1.023 1.010 60 65 68
1.207 -1.065 1.006 36 40 49
1.281 -1.130 1.009 47 53 53
1.328 -1.227 1.021 46 55 50
1.375 -1.321 1.032 51 62 56
1.419 -1.415 1.043 63 68 61
1.460 -1.510 1.054 225 223 211
1.511 -1.590 1.060 199 197 182
1.525 -1.707 1.078 171 175 161
1.500 -1.855 1.109 113 112 108
0.507 -2.873 1.464 101 98 81
0.086 -3.305 1.615 137 138 120
0.089 -3.352 1.622 29 35 25
0.302 -3.232 1.562 33 34 29
0.346 -3.254 1.556 35 31 30
0.298 -3.340 1.579 19 20 12
0.291 -3.395 1.588 55 58 47
0.308 -3.431 1.589 44 46 35
0.317 -3.473 1.593 46 46 38
0.332 -3.510 1.594 47 42 38
0.352 -3.545 1.594 48 49 51
0.376 -3.577 1.593 20 23 30
0.348 -3.635 1.605 34 37 42
0.349 -3.676 1.609 28 34 22
0.379 -3.706 1.605 51 64 38
0.498 -3.701 1.577 61 59 44
0.703 -3.672 1.526 67 49 49
0.640 -3.742 1.547 36 26 25
0.553 -3.814 1.573 49 45 46
0.465 -3.882 1.599 100 88 72
0.451 -3.926 1.605 116 99 81
0.475 -3.960 1.601 59 50 33
0.370 -4.021 1.630 155 139 116
0.385 -4.055 1.628 173 157 142
0.397 -4.090 1.627 39 30 15
0.358 -4.132 1.638 52 53 19
0.362 -4.167 1.638 94 100 52
0.570 -4.187 1.586 85 65 41
0.915 -4.211 1.500 42 22 15
0.931 -4.259 1.497 156 138 128
0.895 -4.309 1.506 137 122 103
0.625 -4.351 1.573 89 79 67
0.583 -4.390 1.584 55 29 14
0.559 -4.429 1.589 74 55 41
0.664 -4.480 1.562 89 55 53
0.584 -4.514 1.581 42 15 4
0.458 -4.536 1.611 102 94 75
0.469 -4.577 1.607 73 66 50
0.512 -4.625 1.594 62 45 25
0.495 -4.662 1.596 122 105 79
0.363 -4.669 1.628 152 136 111
0.317 -4.695 1.638 160 144 128
0.347 -4.741 1.627 232 213 199
0.289 -4.760 1.640 59 29 18
0.264 -4.789 1.643 73 45 34
0.251 -4.821 1.643 55 40 33
0.208 -4.841 1.651 44 31 23
0.166 -4.860 1.659 98 87 69
0.150 -4.889 1.660 87 76 56
0.203 -4.953 1.641 54 44 35
0.152 -4.966 1.651 91 79 65
0.128 -4.992 1.653 137 128 111
0.126 -5.030 1.649 94 83 65
0.169 -5.098 1.631 111 83 71
0.124 -5.112 1.638 90 65 43
0.102 -5.139 1.639 80 59 30
0.104 -5.184 1.632 108 89 74
0.099 -5.227 1.626 155 137 123
0.069 -5.249 1.629 112 97 94
0.036 -5.269 1.632 169 157 131
-0.000 -5.285 1.636 143 121 108
-0.006 -5.328 1.630 109 81 67
0.490 -5.876 1.445 93 85 74
3.563 -9.183 0.314 100 85 80
-0.036 -5.458 1.611 103 74 60
-0.053 -5.496 1.607 111 84 55
-0.066 -5.540 1.601 126 107 65
2.648 -9.082 0.483 117 113 112
2.565 -9.220 0.468 62 67 70
0.175 -6.087 1.455 138 125 106
-0.215 -5.598 1.611 109 98 34
-0.277 -5.573 1.625 111 106 74
-0.327 -5.560 1.635 183 163 152
-0.364 -5.567 1.638 113 87 70
-0.389 -5.596 1.634 74 61 29
-0.413 -5.628 1.630 85 67 57
-0.433 -5.670 1.623 104 85 42
-0.440 -5.745 1.606 201 183 107
-0.376 -6.001 1.541 218 202 186
-0.511 -5.777 1.606 63 50 34
-0.561 -5.752 1.616 43 29 2
-0.569 -5.846 1.595 126 112 73
0.240 -8.650 0.864 87 63 51
0.131 -8.675 0.865 42 38 39
-0.225 -7.713 1.121 84 74 62
-0.726 -5.871 1.599 232 214 112
-0.802 -5.691 1.647 50 47 42
-0.845 -5.644 1.660 55 55 47
-0.881 -5.629 1.666 61 61 53
-0.912 -5.645 1.663 64 64 56
-0.940 -5.702 1.649 56 52 49
-0.955 -5.964 1.584 40 34 34
-1.012 -5.629 1.669 59 56 51
-1.046 -5.574 1.683 54 53 48
-1.077 -5.579 1.682 122 118 106
-1.109 -5.624 1.670 47 40 34
-1.145 -5.698 1.652 78 69 72
-1.185 -5.767 1.634 59 51 48
-1.223 -5.785 1.628 91 79 81
-1.255 -5.747 1.637 50 40 39
-1.283 -5.696 1.649 72 64 61
-1.323 -5.726 1.640 62 50 52
-1.367 -5.768 1.627 88 84 73
-1.396 -5.727 1.636 88 82 66
-1.474 -5.895 1.590 68 58 46
-1.519 -5.904 1.585 37 27 28
-1.538 -5.829 1.602 54 49 45
-1.580 -5.832 1.598 22 18 9
-1.622 -5.830 1.595 40 32 29
-1.664 -5.829 1.592 40 30 29
-1.704 -5.823 1.589 38 34 35
-1.749 -5.825 1.585 19 23 22
-1.800 -5.838 1.576 45 35 34
-1.852 -5.848 1.568 75 61 52
-1.900 -5.848 1.563 69 52 36
-1.983 -5.907 1.540 62 52 42
-2.109 -6.030 1.497 27 23 11
-2.174 -6.040 1.487 121 105 80
-2.225 -6.026 1.483 149 123 98
-2.262 -5.991 1.485 136 113 82
-2.299 -5.956 1.486 121 100 81
-2.348 -5.937 1.483 96 79 61
-2.561 -6.117 1.414 152 145 126
-2.596 -6.069 1.418 86 69 41
-2.579 -5.966 1.440 133 107 84
-2.674 -5.986 1.420 135 129 105
-2.743 -5.975 1.410 58 63 33
-2.792 -5.941 1.407 65 70 40
-2.831 -5.898 1.407 75 80 50
-2.882 -5.865 1.403 47 51 24
-2.943 -5.840 1.395 111 108 75
-2.995 -5.805 1.391 85 84 54
-3.023 -5.752 1.393 59 60 44
-3.064 -5.708 1.391 56 59 48
-3.109 -5.667 1.388 44 56 36
-3.160 -5.628 1.382 52 64 44
-3.216 -5.591 1.375 55 63 50
-3.316 -5.577 1.356 24 29 22
-3.364 -5.531 1.350 24 30 16
-3.399 -5.478 1.349 61 67 39
-3.382 -5.399 1.361 84 91 50
-3.466 -5.368 1.345 64 68 31
-3.512 -5.317 1.340 31 35 8
-3.528 -5.254 1.342 44 47 26
-3.547 -5.192 1.343 51 54 35
-3.547 -5.125 1.348 47 51 24
-3.488 -5.040 1.369 87 86 56
-3.469 -4.971 1.378 79 77 52
-3.550 -4.928 1.361 64 66 44
-3.599 -4.875 1.353 37 40 19
-3.625 -4.815 1.349 31 40 21
-3.646 -4.754 1.347 34 43 26
-3.656 -4.691 1.347 33 42 25
-3.648 -4.626 1.351 25 33 18
-3.661 -4.563 1.350 20 32 10
-3.663 -4.499 1.350 33 45 21
-3.664 -4.436 1.351 22 34 10
-3.665 -4.372 1.352 33 45 23
-3.657 -4.309 1.354 25 36 20
-3.648 -4.246 1.356 34 45 31
-3.639 -4.183 1.358 22 33 17
-3.629 -4.121 1.359 23 34 17
-3.614 -4.059 1.362 28 37 18
-3.570 -4.001 1.371 36 50 27
-3.470 -3.954 1.394 29 41 17
-3.264 -3.929 1.444 54 58 35
-3.162 -3.894 1.468 78 81 62
-3.128 -3.848 1.473 48 52 38
-3.109 -3.800 1.475 49 52 41
-3.098 -3.750 1.475 58 62 45
-3.103 -3.694 1.470 50 59 32
-3.249 -3.591 1.427 70 52 42
-3.192 -3.552 1.437 50 36 0
-3.050 -3.548 1.470 11 11 19
-3.018 -3.505 1.474 48 47 42
-2.993 -3.460 1.475 65 65 63
-2.966 -3.415 1.477 15 21 21
-2.949 -3.367 1.475 19 21 20
-2.935 -3.316 1.472 30 33 26
-2.921 -3.264 1.469 51 53 39
-2.904 -3.214 1.467 67 68 50
-2.882 -3.166 1.465 75 77 63
-2.854 -3.121 1.465 52 59 41
-2.823 -3.079 1.465 71 68 49
-2.792 -3.037 1.465 59 65 51
-2.762 -2.994 1.465 36 38 16
-2.737 -2.947 1.462 94 87 45
-2.701 -2.908 1.463 80 72 33
-2.669 -2.866 1.462 100 94 58
-2.636 -2.825 1.461 88 85 44
-2.604 -2.782 1.459 97 94 59
-2.569 -2.742 1.458 68 65 32
-2.536 -2.699 1.456 90 87 54
-2.505 -2.654 1.453 68 65 32
-2.470 -2.612 1.450 87 82 52
-2.436 -2.568 1.447 63 65 28
-2.405 -2.519 1.442 78 86 39
-2.376 -2.465 1.435 68 74 28
-2.349 -2.406 1.427 67 74 23
-2.326 -2.336 1.415 65 69 32
-2.314 -2.246 1.398 32 34 0
-2.273 -2.197 1.392 77 77 39
-2.243 -2.128 1.381 116 109 90
-2.216 -2.047 1.366 51 49 24
-2.172 -1.994 1.359 71 79 42
-2.119 -1.959 1.356 61 70 27
-2.062 -1.930 1.355 45 52 18
-2.005 -1.904 1.354 46 53 20
-1.945 -1.885 1.355 57 64 33
-1.882 -1.871 1.357 31 36 14
-1.820 -1.860 1.359 24 29 9
-1.756 -1.855 1.362 24 31 15
-1.692 -1.853 1.366 24 29 22
-1.628 -1.857 1.371 25 30 26
-1.565 -1.855 1.373 35 38 29
-1.503 -1.854 1.376 17 20 9
-1.442 -1.847 1.377 32 35 24
-1.382 -1.840 1.377 20 23 14
-1.320 -1.843 1.379 24 29 23
-1.260 -1.834 1.378 32 39 23
-1.199 -1.836 1.380 21 28 20
-1.138 -1.836 1.380 28 36 23
-1.077 3.901 -0.200 84 100 89
-0.876 3.873 -0.193 58 74 64
-0.678 3.814 -0.179 59 72 63
-0.483 3.749 -0.165 61 74 67
-0.290 3.682 -0.152 48 59 51
-0.100 3.615 -0.139 45 56 48
0.088 3.544 -0.127 46 57 49
0.272 3.466 -0.114 41 52 44
0.451 3.376 -0.099 41 52 44
0.628 3.283 -0.085 42 53 47
0.798 3.176 -0.067 52 63 57
0.962 3.059 -0.048 37 48 42
1.132 2.974 -0.039 62 67 63
0.430 0.253 0.713 122 133 125
0.302 -0.455 0.903 79 100 93
0.357 -0.590 0.932 54 78 80
0.430 -0.670 0.945 49 74 78
0.519 -0.709 0.945 48 68 67
0.620 -0.721 0.937 60 76 75
0.708 -0.763 0.936 34 45 49
0.791 -0.813 0.938 38 53 58
0.877 -0.859 0.938 43 61 63
0.964 -0.903 0.936 44 62 62
1.047 -0.954 0.936 58 76 76
1.130 -1.006 0.936 45 60 55
1.208 -1.064 0.936 37 51 54
1.280 -1.131 0.940 45 58 66
1.335 -1.218 0.949 40 53 62
1.392 -1.300 0.957 55 73 83
1.445 -1.385 0.966 48 62 65
1.494 -1.472 0.974 35 37 32
1.553 -1.546 0.978 196 196 186
1.584 -1.648 0.992 193 192 190
1.595 -1.764 1.011 140 151 143
1.338 -2.120 1.127 74 64 55
0.298 -3.123 1.514 97 91 75
0.172 -3.284 1.567 29 35 25
0.315 -3.222 1.527 55 56 58
0.332 -3.264 1.530 31 29 32
0.277 -3.355 1.556 27 25 13
0.271 -3.408 1.566 75 78 59
0.291 -3.442 1.566 41 48 30
0.298 -3.485 1.571 52 54 41
0.319 -3.518 1.570 48 35 29
0.356 -3.543 1.565 37 37 39
0.381 -3.575 1.563 24 29 32
0.322 -3.647 1.585 114 119 122
0.321 -3.689 1.590 136 143 127
0.365 -3.711 1.582 72 91 46
0.504 -3.699 1.546 77 82 52
0.705 -3.671 1.493 54 40 37
0.615 -3.750 1.523 25 19 23
0.524 -3.823 1.552 71 62 67
0.451 -3.886 1.575 59 46 30
0.437 -3.929 1.582 147 130 112
0.448 -3.966 1.581 67 56 34
0.351 -4.025 1.610 107 92 71
0.364 -4.059 1.608 68 57 39
0.387 -4.092 1.603 35 32 13
0.342 -4.134 1.617 85 94 63
0.344 -4.169 1.617 53 72 26
0.750 -4.174 1.509 74 43 14
1.529 -4.181 1.301 159 148 144
1.579 -4.244 1.288 119 66 58
1.568 -4.309 1.291 159 160 146
1.527 -4.373 1.302 174 124 127
1.482 -4.434 1.313 102 73 67
1.471 -4.497 1.315 160 143 135
1.448 -4.557 1.320 108 58 67
1.435 -4.619 1.322 158 158 146
1.339 -4.667 1.346 85 56 48
1.334 -4.727 1.344 179 150 144
1.306 -4.783 1.349 141 126 121
1.285 -4.839 1.351 122 78 75
1.258 -4.894 1.355 155 151 140
1.022 -4.890 1.416 114 58 67
0.586 -4.813 1.534 156 136 127
0.299 -4.763 1.612 174 147 130
0.257 -4.786 1.620 74 46 35
0.238 -4.816 1.622 65 48 41
0.193 -4.835 1.632 64 52 36
0.147 -4.851 1.641 91 80 60
0.138 -4.884 1.640 84 75 58
0.209 -4.956 1.614 48 37 33
0.151 -4.965 1.627 60 67 49
0.128 -4.992 1.629 42 37 31
0.121 -5.027 1.626 35 36 22
0.157 -5.090 1.609 112 76 64
0.123 -5.111 1.613 95 89 73
0.092 -5.132 1.617 178 170 133
0.098 -5.180 1.608 106 85 66
0.075 -5.208 1.608 154 137 127
0.040 -5.225 1.613 113 97 84
0.008 -5.244 1.616 187 170 150
-0.027 -5.260 1.620 86 63 45
-0.028 -5.307 1.612 223 196 175
0.494 -5.880 1.405 157 144 138
3.500 -9.116 0.221 108 91 84
-0.029 -5.466 1.582 91 64 47
-0.056 -5.493 1.581 188 171 143
-0.065 -5.543 1.572 130 112 88
2.629 -9.058 0.386 97 87 77
2.548 -9.196 0.370 61 66 69
0.155 -6.058 1.427 107 97 61
-0.212 -5.604 1.583 86 73 3
-0.272 -5.580 1.597 51 53 31
-0.321 -5.570 1.606 125 96 88
-0.362 -5.572 1.611 116 83 66
-0.389 -5.597 1.609 133 125 106
-0.410 -5.635 1.602 58 51 35
-0.429 -5.679 1.594 120 107 54
-0.436 -5.755 1.576 201 188 120
-0.366 -6.025 1.502 211 200 180
-0.519 -5.756 1.584 159 163 126
-0.567 -5.734 1.595 49 47 26
-0.140 -7.145 1.200 55 46 39
0.286 -8.803 0.742 53 43 34
0.174 -8.828 0.743 37 31 31
0.047 -8.798 0.760 42 40 27
-0.733 -5.840 1.579 180 172 136
-0.807 -5.666 1.629 55 59 26
-0.848 -5.627 1.641 62 66 43
-0.882 -5.623 1.644 79 82 63
-0.913 -5.637 1.641 55 62 46
-0.940 -5.703 1.625 41 47 47
-0.954 -5.979 1.551 50 40 39
-1.014 -5.591 1.656 81 80 75
-1.047 -5.544 1.669 65 64 46
-1.077 -5.550 1.667 157 149 112
-1.108 -5.578 1.660 96 102 92
-1.142 -5.625 1.647 94 91 58
-1.177 -5.666 1.635 55 46 51
-1.209 -5.647 1.640 95 89 73
-1.240 -5.628 1.644 37 44 37
-1.271 -5.614 1.646 47 55 42
-1.311 -5.656 1.633 50 50 40
-1.356 -5.709 1.618 114 111 78
-1.392 -5.710 1.615 109 107 68
-1.461 -5.842 1.576 150 145 123
-1.513 -5.885 1.562 60 49 45
-1.523 -5.778 1.589 106 98 75
-1.557 -5.761 1.590 143 134 103
-1.599 -5.769 1.585 115 99 73
-1.649 -5.791 1.574 114 91 75
-1.695 -5.801 1.567 129 104 99
-1.744 -5.812 1.559 46 17 11
-1.810 -5.858 1.541 115 78 72
-1.871 -5.886 1.527 115 82 75
-1.915 -5.876 1.524 124 91 86
-1.973 -5.890 1.513 131 106 102
-2.040 -5.915 1.498 37 16 11
-2.074 -5.882 1.501 140 107 98
-2.112 -5.857 1.501 158 120 109
-2.176 -5.870 1.488 154 116 105
-2.229 -5.861 1.482 147 107 99
-2.304 -5.880 1.466 157 119 110
-2.557 -6.112 1.375 190 170 159
-2.586 -6.057 1.381 84 67 57
-2.507 -5.887 1.429 82 64 60
-2.536 -5.840 1.433 68 61 53
-2.566 -5.797 1.436 65 65 53
-2.589 -5.748 1.441 63 59 50
-2.641 -5.726 1.435 107 98 93
-2.684 -5.695 1.431 36 36 26
-2.742 -5.675 1.423 54 43 15
-2.815 -5.665 1.409 118 109 66
-2.873 -5.640 1.401 40 32 29
-2.916 -5.604 1.397 42 43 45
-2.978 -5.579 1.388 74 78 63
-3.041 -5.552 1.377 62 71 52
-3.093 -5.517 1.370 53 59 45
-3.227 -5.527 1.338 26 23 30
-3.301 -5.497 1.324 14 13 21
-3.255 -5.405 1.347 23 29 19
-3.002 -5.219 1.429 90 97 64
-2.946 -5.137 1.452 102 103 61
-2.949 -5.084 1.457 93 90 59
-2.962 -5.036 1.459 65 63 38
-2.998 -4.996 1.453 68 68 44
-3.057 -4.963 1.441 75 77 53
-3.107 -4.925 1.432 66 65 44
-3.156 -4.884 1.422 72 75 44
-3.228 -4.847 1.406 78 82 45
-3.355 -4.820 1.374 58 64 30
-3.531 -4.797 1.330 77 79 57
-3.599 -4.746 1.314 55 58 39
-3.606 -4.684 1.315 43 50 34
-3.567 -4.616 1.328 43 55 35
-3.596 -4.557 1.322 42 53 23
-3.602 -4.495 1.322 44 53 22
-3.610 -4.433 1.320 41 49 25
-3.609 -4.371 1.321 35 43 20
-3.607 -4.309 1.322 30 39 18
-3.600 -4.247 1.324 14 23 4
-3.583 -4.186 1.328 48 57 38
-3.563 -4.125 1.332 32 41 24
-3.554 -4.065 1.333 43 49 35
-3.451 -4.016 1.359 44 51 35
-3.309 -3.978 1.395 31 34 13
-3.215 -3.938 1.419 72 74 50
-3.150 -3.896 1.434 65 67 54
-3.115 -3.851 1.440 34 37 28
-3.091 -3.804 1.444 48 51 42
-3.079 -3.755 1.443 47 53 41
-3.083 -3.700 1.438 44 48 34
-3.214 -3.603 1.397 75 62 45
-3.176 -3.558 1.403 96 76 26
-3.038 -3.552 1.437 21 23 22
-3.006 -3.510 1.441 34 36 33
-2.980 -3.465 1.442 43 43 43
-2.953 -3.421 1.444 19 19 19
-2.934 -3.374 1.443 21 22 24
-2.919 -3.324 1.441 27 33 29
-2.907 -3.272 1.437 43 45 34
-2.893 -3.221 1.433 74 72 57
-2.873 -3.172 1.431 87 88 72
-2.841 -3.130 1.432 42 43 27
-2.807 -3.090 1.433 61 60 39
-2.778 -3.047 1.433 68 69 55
-2.750 -3.004 1.432 29 28 10
-2.724 -2.957 1.429 99 95 57
-2.688 -2.919 1.430 95 91 53
-2.655 -2.879 1.429 107 103 66
-2.622 -2.838 1.428 118 114 77
-2.589 -2.796 1.427 96 91 59
-2.554 -2.758 1.426 85 80 40
-2.522 -2.715 1.423 84 90 52
-2.489 -2.672 1.421 45 49 16
-2.451 -2.635 1.420 83 85 45
-2.413 -2.597 1.418 89 91 52
-2.380 -2.553 1.414 51 51 15
-2.348 -2.505 1.409 76 83 41
-2.325 -2.442 1.398 81 87 43
-2.304 -2.372 1.386 83 79 42
-2.279 -2.304 1.374 133 125 86
-2.225 -2.283 1.376 107 108 68
-2.206 -2.197 1.359 95 88 62
-2.202 -2.074 1.330 52 49 16
-2.162 -2.015 1.320 68 76 29
-2.107 -1.985 1.319 65 71 25
-2.050 -1.961 1.319 31 38 0
-1.992 -1.936 1.319 52 62 25
-1.933 -1.916 1.319 74 83 56
-1.871 -1.906 1.322 38 42 27
-1.809 -1.895 1.324 41 44 23
-1.747 -1.889 1.327 47 49 35
-1.684 -1.885 1.330 23 26 19
-1.620 -1.890 1.336 18 20 15
-1.559 -1.888 1.339 21 26 22
-1.497 -1.889 1.342 26 31 27
-1.436 -1.888 1.344 24 27 20
-1.376 -1.883 1.345 34 35 27
-1.316 -1.882 1.347 23 25 12
-1.257 -1.876 1.346 40 43 32
-1.197 -1.876 1.347 40 49 32
-1.137 -1.867 1.346 30 40 29
-1.077 3.869 -0.335 72 79 71
-0.877 3.838 -0.327 48 55 48
-0.680 3.781 -0.313 29 36 29
-0.485 3.715 -0.298 16 22 18
-0.294 3.647 -0.283 18 25 18
-0.104 3.581 -0.270 14 19 13
0.083 3.510 -0.257 15 20 14
0.266 3.432 -0.243 11 16 10
0.445 3.342 -0.228 8 13 7
0.620 3.249 -0.212 4 9 3
0.789 3.141 -0.193 11 16 10
0.955 3.035 -0.176 16 21 15
1.124 2.946 -0.165 29 31 26
0.460 0.346 0.600 144 154 146
0.285 -0.502 0.845 51 66 61
0.378 -0.537 0.846 23 38 41
0.439 -0.648 0.869 22 37 44
0.529 -0.684 0.868 31 46 49
0.626 -0.708 0.863 29 41 41
0.714 -0.751 0.863 34 41 49
0.797 -0.802 0.865 30 41 43
0.883 -0.848 0.864 40 52 52
0.971 -0.892 0.863 43 55 53
1.051 -0.947 0.864 49 61 59
1.137 -0.995 0.862 55 66 62
1.226 -1.039 0.858 50 58 60
1.289 -1.118 0.866 57 64 72
1.341 -1.211 0.878 58 65 73
1.400 -1.291 0.885 69 83 86
1.459 -1.369 0.891 62 71 68
1.512 -1.453 0.899 192 192 182
1.565 -1.533 0.906 201 197 185
1.601 -1.630 0.918 123 120 111
1.618 -1.742 0.937 133 88 93
1.416 -2.049 1.039 35 43 32
1.135 -2.401 1.166 165 168 161
0.593 -2.938 1.383 188 200 190
0.348 -3.196 1.484 25 30 26
0.315 -3.276 1.505 42 42 40
0.277 -3.355 1.527 35 33 20
0.267 -3.411 1.538 58 55 38
0.280 -3.449 1.541 35 35 23
0.297 -3.485 1.543 64 65 59
0.329 -3.512 1.538 34 24 25
0.351 -3.545 1.538 42 35 43
0.346 -3.592 1.545 21 19 20
0.313 -3.651 1.561 115 112 119
0.329 -3.686 1.561 105 108 101
0.373 -3.708 1.552 59 64 42
0.543 -3.684 1.504 66 60 48
0.724 -3.664 1.454 59 41 41
0.609 -3.752 1.493 32 24 22
0.525 -3.823 1.522 58 58 60
0.459 -3.884 1.545 49 45 34
0.438 -3.929 1.554 88 76 64
0.430 -3.970 1.559 58 46 32
0.352 -4.024 1.584 122 110 96
0.355 -4.060 1.585 67 57 47
0.364 -4.095 1.584 69 67 55
0.346 -4.133 1.591 72 77 57
0.351 -4.168 1.590 32 43 13
0.844 -4.167 1.450 104 68 46
1.566 -4.179 1.244 181 164 170
1.604 -4.243 1.234 109 49 49
1.599 -4.309 1.236 166 165 160
1.569 -4.374 1.244 146 93 103
1.557 -4.438 1.247 124 95 97
1.547 -4.502 1.249 180 162 160
1.526 -4.565 1.253 109 51 66
1.519 -4.629 1.253 148 139 134
1.473 -4.687 1.264 139 98 102
1.446 -4.747 1.269 134 97 105
1.434 -4.808 1.269 151 154 145
1.377 -4.860 1.282 131 55 65
1.360 -4.919 1.283 140 143 136
1.322 -4.973 1.289 109 63 66
0.816 -4.883 1.435 158 129 123
0.337 -4.776 1.575 213 186 177
0.281 -4.795 1.588 123 94 86
0.236 -4.815 1.598 42 23 17
0.188 -4.833 1.609 47 33 20
0.153 -4.854 1.616 109 96 79
0.151 -4.890 1.612 77 66 48
0.169 -4.936 1.601 51 41 29
0.154 -4.967 1.601 37 35 23
0.134 -4.995 1.602 83 64 60
0.125 -5.029 1.600 61 61 49
0.147 -5.084 1.586 89 59 49
0.127 -5.113 1.587 53 55 41
0.102 -5.139 1.588 45 42 11
0.089 -5.174 1.585 115 99 76
0.065 -5.200 1.586 106 94 80
0.022 -5.211 1.594 66 54 42
-0.025 -5.216 1.603 83 69 60
-0.058 -5.232 1.607 113 99 86
-0.041 -5.296 1.591 130 118 102
1.315 -6.701 1.034 88 83 79
2.658 -8.232 0.453 97 88 83
-0.001 -5.496 1.543 39 23 10
-0.022 -5.532 1.539 91 85 63
-0.039 -5.574 1.533 55 51 42
2.636 -9.066 0.277 90 89 94
2.547 -9.196 0.263 90 99 114
0.131 -6.025 1.401 104 101 50
-0.212 -5.603 1.555 90 77 7
-0.270 -5.583 1.569 56 58 37
-0.315 -5.581 1.577 95 71 61
-0.354 -5.586 1.581 117 92 72
-0.384 -5.605 1.580 84 72 56
-0.403 -5.647 1.572 75 69 47
-0.426 -5.685 1.565 129 119 57
-0.430 -5.769 1.544 174 164 103
-0.394 -5.959 1.490 182 174 155
-0.516 -5.763 1.555 112 116 83
-0.558 -5.761 1.560 49 42 24
0.401 -8.784 0.654 30 20 19
0.298 -8.843 0.647 47 45 46
0.184 -8.867 0.649 48 51 56
0.071 -8.891 0.651 31 36 39
-0.476 -6.985 1.217 40 34 34
-0.797 -5.718 1.590 64 61 30
-0.840 -5.674 1.604 99 101 61
-0.877 -5.657 1.611 75 79 44
-0.912 -5.645 1.616 76 77 59
-0.939 -5.713 1.597 66 55 49
-0.954 -5.979 1.522 63 44 46
-1.012 -5.629 1.623 129 124 121
-1.047 -5.537 1.649 152 134 112
-1.077 -5.536 1.650 159 131 110
-1.108 -5.560 1.643 82 73 76
-1.143 -5.644 1.618 153 149 114
-1.177 -5.662 1.612 70 60 51
-1.210 -5.652 1.614 110 96 69
-1.241 -5.634 1.619 41 37 25
-1.272 -5.623 1.621 79 77 56
-1.316 -5.686 1.601 72 61 41
-1.359 -5.724 1.588 111 110 82
-1.394 -5.721 1.587 124 124 96
-1.458 -5.828 1.553 111 108 91
-1.513 -5.884 1.533 81 67 64
-1.525 -5.784 1.560 142 130 114
-1.556 -5.757 1.564 147 136 114
-1.591 -5.745 1.564 89 78 56
-1.632 -5.747 1.560 120 106 93
-1.673 -5.748 1.555 59 46 40
-1.718 -5.754 1.549 42 23 17
-1.777 -5.789 1.532 99 76 70
-1.847 -5.839 1.511 40 22 18
-1.908 -5.864 1.496 36 25 29
-1.966 -5.878 1.485 35 33 34
-2.014 -5.871 1.480 28 30 27
-2.052 -5.849 1.479 31 22 23
-2.102 -5.843 1.473 56 45 43
-2.164 -5.852 1.461 46 35 33
-2.223 -5.854 1.451 48 34 33
-2.290 -5.863 1.437 80 66 65
-2.502 -6.045 1.359 177 164 155
-2.562 -6.030 1.351 95 85 76
-2.519 -5.900 1.387 75 67 65
-2.539 -5.844 1.395 57 54 49
-2.564 -5.796 1.399 46 48 37
-2.596 -5.755 1.401 94 90 79
-2.645 -5.730 1.396 65 56 47
-2.672 -5.684 1.399 63 65 52
-2.712 -5.651 1.396 76 71 49
-2.772 -5.631 1.386 124 122 83
-2.809 -5.593 1.384 46 45 40
-2.843 -5.552 1.383 51 56 52
-2.904 -5.529 1.373 80 83 74
-2.972 -5.509 1.360 36 42 30
-3.043 -5.487 1.345 39 47 34
-3.172 -5.495 1.313 26 26 28
-3.275 -5.484 1.288 21 19 22
-3.057 -5.305 1.367 87 90 81
-2.910 -5.175 1.421 59 64 44
-2.886 -5.110 1.435 54 56 34
-2.892 -5.060 1.439 101 100 79
-2.910 -5.016 1.439 66 65 44
-2.942 -4.976 1.434 66 69 48
-2.989 -4.940 1.425 62 67 47
-3.042 -4.905 1.414 51 53 39
-3.087 -4.865 1.405 59 63 40
-3.131 -4.823 1.395 73 79 41
-3.183 -4.782 1.384 68 74 36
-3.240 -4.739 1.370 77 77 43
-3.298 -4.694 1.356 81 82 51
-3.359 -4.647 1.341 63 67 40
-3.396 -4.595 1.333 58 67 36
-3.418 -4.539 1.328 64 74 40
-3.413 -4.481 1.331 83 92 61
-3.387 -4.422 1.340 93 102 75
-3.367 -4.365 1.346 55 63 39
-3.355 -4.309 1.349 60 65 45
-3.340 -4.253 1.354 81 85 68
-3.315 -4.199 1.360 72 77 57
-3.295 -4.145 1.365 39 44 24
-3.280 -4.092 1.368 64 67 48
