ply
format ascii 1.0
element vertex 1373
property float x
property float y
property float z
property uchar red
property uchar green
property uchar blue
end_header
-56.786 -31.483 -23.766 15 18 23
-56.811 -31.199 -23.944 14 19 22
-56.830 -30.911 -24.123 15 20 23
-56.842 -30.622 -24.304 17 22 25
-56.839 -30.333 -24.467 18 23 26
-56.831 -30.041 -24.637 18 26 28
-56.818 -29.746 -24.814 17 25 27
-56.794 -29.452 -24.981 12 20 22
-56.759 -29.158 -25.143 13 21 23
-56.747 -28.850 -25.381 22 32 33
-56.707 -28.549 -25.570 20 29 28
-56.648 -28.253 -25.731 23 27 26
-56.583 -27.955 -25.897 97 99 94
-56.499 -27.663 -26.036 45 45 43
-56.403 -27.375 -26.161 37 39 36
-56.297 -27.090 -26.282 109 113 112
-56.183 -26.805 -26.403 37 43 43
-56.066 -26.520 -26.535 22 28 26
-55.946 -26.233 -26.681 112 113 108
-55.814 -25.951 -26.816 105 104 99
-55.675 -25.671 -26.951 89 91 88
-55.518 -25.401 -27.058 87 89 86
-55.358 -25.131 -27.176 103 105 102
-55.194 -24.861 -27.306 101 103 100
-55.023 -24.593 -27.438 98 100 97
-54.850 -24.323 -27.588 94 94 96
-54.668 -24.058 -27.732 26 27 29
-54.473 -23.802 -27.859 21 27 27
-54.269 -23.552 -27.979 21 31 30
-54.055 -23.310 -28.088 19 25 25
-53.840 -23.066 -28.216 14 20 20
-53.625 -22.816 -28.375 11 17 17
-53.401 -22.572 -28.529 20 26 26
-53.163 -22.343 -28.654 23 29 29
-52.914 -22.128 -28.756 19 25 25
-52.656 -21.921 -28.850 17 23 23
-52.392 -21.722 -28.942 17 23 23
-52.122 -21.529 -29.031 17 21 22
-51.845 -21.344 -29.116 16 20 21
-51.564 -21.165 -29.201 17 21 22
-51.276 -20.996 -29.280 16 20 21
-50.982 -20.835 -29.353 17 18 20
-50.683 -20.683 -29.424 15 19 20
-50.379 -20.541 -29.487 15 21 21
-50.070 -20.408 -29.544 12 18 18
-49.756 -20.288 -29.589 23 33 32
-49.437 -20.179 -29.627 6 16 15
-49.115 -20.081 -29.656 9 18 17
-48.789 -19.993 -29.678 11 20 19
-48.461 -19.917 -29.694 11 17 15
-48.130 -19.852 -29.701 20 26 24
-47.797 -19.801 -29.696 29 35 33
-47.461 -19.764 -29.675 28 34 32
-47.125 -19.741 -29.644 28 37 34
-46.789 -19.724 -29.616 29 35 33
-46.452 -19.715 -29.589 31 35 34
-46.116 -19.714 -29.564 29 33 32
-45.780 -26.922 -13.621 184 155 139
-45.622 -26.926 -13.617 184 155 139
-45.463 -26.929 -13.624 185 159 144
-45.304 -26.931 -13.641 171 148 134
-45.143 -26.922 -13.697 165 151 138
-44.982 -26.923 -13.738 197 189 176
-44.823 -26.935 -13.760 193 189 177
-44.669 -26.988 -13.693 194 188 176
-44.580 -27.358 -12.855 145 137 126
-44.434 -27.395 -12.839 152 146 134
-44.285 -27.421 -12.862 152 148 136
-44.136 -27.452 -12.882 150 148 135
-43.990 -27.489 -12.893 154 150 138
-43.842 -27.526 -12.918 146 142 130
-43.696 -27.567 -12.939 146 142 130
-43.550 -27.611 -12.961 150 146 134
-43.405 -27.658 -12.985 145 141 129
-43.261 -27.709 -13.011 144 140 128
-43.117 -27.762 -13.038 143 139 127
-42.974 -27.818 -13.068 144 140 128
-42.832 -27.877 -13.098 142 142 130
-42.692 -27.941 -13.128 142 142 132
-42.553 -28.007 -13.158 140 140 130
-42.415 -28.078 -13.187 125 125 115
-42.278 -28.151 -13.218 104 106 95
-42.143 -28.228 -13.250 127 129 118
-42.010 -28.309 -13.280 134 136 125
-41.879 -28.393 -13.311 134 136 125
-41.749 -28.480 -13.344 131 133 122
-41.620 -28.570 -13.376 131 133 122
-41.494 -28.664 -13.408 126 127 119
-41.371 -28.761 -13.440 128 129 123
-41.249 -28.861 -13.471 125 126 118
-41.129 -28.965 -13.504 128 129 121
-41.012 -29.071 -13.537 131 132 124
-40.897 -29.180 -13.569 128 129 121
-40.785 -29.293 -13.601 127 128 120
-40.676 -29.409 -13.632 129 130 122
-40.569 -29.528 -13.664 129 130 122
-40.465 -29.649 -13.695 123 124 116
-40.364 -29.774 -13.727 130 131 123
-40.265 -29.900 -13.760 128 129 121
-40.170 -30.030 -13.792 128 129 121
-40.078 -30.162 -13.824 124 125 117
-39.989 -30.297 -13.855 125 126 118
-39.902 -30.434 -13.887 121 122 114
-39.820 -30.574 -13.919 131 132 124
-39.740 -30.715 -13.950 125 126 118
-39.664 -30.859 -13.982 130 131 123
-39.592 -31.006 -14.012 128 129 121
-39.523 -31.154 -14.044 127 128 120
-39.457 -31.304 -14.076 123 124 116
-39.395 -31.456 -14.110 116 117 109
-39.337 -31.610 -14.141 126 127 119
-39.283 -31.765 -14.171 123 124 116
-39.233 -31.922 -14.202 127 128 120
-39.186 -32.081 -14.233 127 128 120
-39.142 -32.241 -14.265 130 131 123
-39.103 -32.402 -14.297 128 129 121
-39.068 -32.565 -14.328 127 128 120
-39.036 -32.729 -14.360 127 128 120
-39.009 -32.893 -14.392 124 125 117
-38.985 -33.059 -14.424 125 126 118
-38.966 -33.225 -14.457 129 130 122
-38.950 -33.393 -14.489 130 131 123
-38.939 -33.561 -14.522 129 130 122
-38.932 -33.729 -14.553 125 126 118
-38.930 -33.898 -14.585 127 128 120
-38.932 -34.067 -14.614 126 127 119
-38.940 -34.236 -14.640 127 128 120
-38.952 -34.406 -14.667 128 129 121
-38.967 -34.575 -14.695 126 127 119
-38.987 -34.744 -14.722 124 125 117
-39.011 -34.913 -14.750 122 123 115
-39.039 -35.081 -14.777 124 125 117
-39.072 -35.249 -14.804 121 122 114
-39.109 -35.417 -14.832 121 122 114
-39.149 -35.583 -14.860 123 124 116
-39.195 -35.749 -14.887 125 126 118
-39.244 -35.914 -14.914 119 120 112
-39.298 -36.078 -14.940 119 120 112
-39.353 -36.242 -14.973 123 124 116
-39.416 -36.403 -14.998 118 119 111
-39.480 -36.564 -15.029 115 116 108
-39.553 -36.721 -15.048 118 119 111
-39.625 -36.880 -15.080 122 123 115
-39.702 -37.036 -15.109 119 120 112
-39.786 -37.189 -15.130 117 118 110
-39.872 -37.340 -15.154 113 114 106
-39.962 -37.490 -15.181 114 115 107
-40.056 -37.639 -15.208 115 116 108
-40.151 -37.786 -15.240 123 124 116
-40.252 -37.930 -15.267 120 121 113
-40.356 -38.072 -15.295 119 120 112
-40.464 -38.212 -15.324 119 120 112
-40.575 -38.349 -15.353 124 125 117
-40.690 -38.484 -15.381 123 124 116
-40.808 -38.616 -15.410 128 129 121
-40.929 -38.745 -15.440 126 127 119
-41.054 -38.872 -15.469 126 127 119
-41.182 -38.996 -15.498 125 126 118
-41.315 -39.115 -15.524 129 130 122
-41.450 -39.232 -15.551 129 130 122
-41.585 -39.349 -15.589 133 134 126
-41.727 -39.460 -15.616 130 132 119
-41.871 -39.566 -15.641 134 136 123
-42.018 -39.670 -15.669 141 143 130
-42.167 -39.771 -15.697 135 137 124
-42.319 -39.868 -15.725 139 141 128
-42.473 -39.963 -15.757 138 140 127
-42.630 -40.054 -15.789 138 140 127
-42.789 -40.141 -15.819 138 140 127
-42.951 -40.224 -15.852 140 142 129
-43.114 -40.304 -15.884 135 137 124
-43.280 -40.380 -15.916 139 141 128
-43.448 -40.452 -15.950 142 144 131
-43.618 -40.520 -15.981 141 143 130
-43.791 -40.583 -16.012 143 143 131
-43.964 -40.643 -16.044 144 144 132
-44.140 -40.699 -16.077 143 143 131
-44.317 -40.750 -16.109 140 140 128
-44.496 -40.795 -16.138 137 139 126
-44.676 -40.838 -16.172 136 138 125
-44.857 -40.880 -16.213 134 136 123
-45.040 -40.916 -16.250 132 134 121
-45.223 -40.946 -16.286 135 137 124
-45.408 -40.972 -16.321 131 133 120
-45.594 -40.994 -16.357 131 133 120
-45.780 -41.011 -16.393 133 131 119
-45.968 -41.023 -16.428 134 132 120
-46.156 -41.031 -16.462 133 131 119
-46.344 -41.034 -16.497 137 135 123
-46.533 -41.032 -16.531 138 136 123
-46.722 -41.025 -16.566 138 136 123
-46.911 -41.014 -16.600 139 137 124
-47.100 -40.998 -16.634 140 138 125
-47.289 -40.975 -16.665 141 139 126
-47.477 -40.949 -16.696 135 133 121
-47.666 -40.921 -16.737 139 137 125
-47.855 -40.889 -16.779 125 123 111
-48.043 -40.852 -16.818 191 189 176
-48.230 -40.808 -16.855 203 201 188
-48.417 -40.761 -16.894 174 174 162
-48.603 -40.711 -16.935 139 139 127
-48.789 -40.656 -16.980 134 134 124
-48.973 -40.596 -17.022 132 132 122
-49.156 -40.530 -17.061 130 130 122
-49.338 -40.460 -17.100 131 132 124
-49.518 -40.385 -17.140 126 129 122
-49.697 -40.306 -17.182 119 121 116
-49.874 -40.222 -17.223 116 118 113
-50.049 -40.133 -17.261 119 121 116
-50.222 -40.040 -17.300 73 75 74
-50.393 -39.942 -17.339 57 59 58
-50.562 -39.841 -17.380 60 61 65
-50.730 -39.735 -17.424 53 54 59
-50.896 -39.626 -17.468 48 53 57
-51.060 -39.514 -17.515 48 53 57
-51.223 -39.398 -17.566 38 43 47
-51.398 -39.293 -17.669 26 31 37
-51.612 -39.224 -17.909 25 33 36
-51.853 -39.174 -18.241 19 27 29
-52.061 -39.086 -18.465 12 20 22
-52.241 -38.966 -18.599 20 28 31
-52.411 -38.835 -18.709 19 23 32
-52.567 -38.689 -18.784 16 19 28
-52.695 -38.521 -18.783 14 17 24
-52.802 -38.338 -18.734 13 16 23
-52.881 -38.137 -18.617 12 17 23
-52.922 -37.915 -18.407 13 18 24
-53.012 -37.727 -18.353 13 18 24
-53.129 -37.556 -18.390 12 17 23
-53.244 -37.382 -18.431 11 18 24
-53.354 -37.205 -18.470 12 19 25
-53.459 -37.024 -18.506 10 17 23
-53.559 -36.841 -18.542 12 19 25
-53.656 -36.655 -18.580 13 18 22
-53.749 -36.466 -18.619 13 18 22
-53.838 -36.276 -18.661 14 19 23
-53.923 -36.083 -18.704 12 17 21
-54.004 -35.887 -18.747 11 19 22
-54.079 -35.689 -18.789 11 19 22
-54.150 -35.489 -18.831 10 18 21
-54.217 -35.287 -18.875 10 18 21
-54.280 -35.083 -18.921 13 18 22
-54.338 -34.878 -18.968 13 18 22
-54.392 -34.670 -19.018 13 18 22
-54.441 -34.461 -19.067 13 18 22
-54.486 -34.250 -19.119 12 17 21
-54.528 -34.038 -19.175 12 17 21
-54.564 -33.824 -19.232 12 17 21
-54.599 -33.609 -19.296 12 17 21
-54.632 -33.393 -19.369 10 18 21
-54.665 -33.175 -19.456 9 19 21
-54.697 -32.955 -19.552 10 15 19
-54.722 -32.733 -19.646 12 15 20
-54.744 -32.510 -19.745 12 15 20
-54.763 -32.285 -19.851 13 16 21
-54.786 -32.057 -19.980 12 15 20
-54.863 -31.817 -20.256 12 15 20
-54.986 -31.562 -20.660 12 17 20
-55.381 -31.237 -21.754 10 18 20
-56.149 -30.796 -23.805 11 19 21
-56.313 -30.478 -24.384 11 19 21
-56.358 -30.184 -24.685 10 19 18
-56.365 -29.896 -24.913 13 22 21
-56.362 -29.607 -25.133 16 25 24
-56.334 -29.322 -25.308 14 23 22
-56.331 -29.022 -25.571 19 28 27
-56.299 -28.730 -25.778 20 26 24
-56.245 -28.443 -25.947 20 25 21
-56.185 -28.156 -26.121 95 97 92
-56.106 -27.874 -26.264 71 67 66
-56.012 -27.596 -26.390 19 19 19
-55.912 -27.320 -26.517 20 24 25
-55.804 -27.046 -26.641 23 27 26
-55.691 -26.771 -26.776 86 88 85
-55.579 -26.492 -26.934 52 53 48
-55.453 -26.219 -27.073 85 86 81
-55.315 -25.952 -27.198 22 23 18
-55.165 -25.691 -27.310 92 94 89
-55.015 -25.427 -27.443 22 27 23
-54.855 -25.168 -27.567 10 14 13
-54.689 -24.911 -27.697 15 20 23
-54.517 -24.656 -27.830 39 39 39
-54.341 -24.401 -27.973 23 23 23
-54.154 -24.154 -28.101 18 22 21
-53.957 -23.913 -28.223 20 29 28
-53.751 -23.680 -28.333 25 29 30
-53.540 -23.450 -28.448 14 18 19
-53.329 -23.215 -28.592 8 14 14
-53.113 -22.981 -28.744 14 23 22
-52.887 -22.757 -28.882 17 26 21
-52.648 -22.547 -28.991 17 26 25
-52.400 -22.348 -29.087 13 21 24
-52.146 -22.157 -29.176 16 21 24
-51.886 -21.971 -29.267 16 20 21
-51.620 -21.792 -29.356 16 20 21
-51.349 -21.618 -29.445 17 21 22
-51.072 -21.454 -29.527 16 20 21
-50.790 -21.298 -29.604 14 18 17
-50.503 -21.150 -29.678 13 17 16
-50.210 -21.013 -29.744 12 18 16
-49.913 -20.884 -29.803 11 20 17
-49.610 -20.768 -29.851 13 22 21
-49.303 -20.663 -29.887 10 19 18
-48.992 -20.571 -29.912 13 19 19
-48.678 -20.488 -29.930 12 18 18
-48.362 -20.414 -29.948 9 15 15
-48.043 -20.353 -29.952 20 26 26
-47.722 -20.305 -29.942 26 32 30
-47.399 -20.272 -29.917 29 35 31
-47.075 -20.251 -29.880 28 34 32
-46.751 -20.237 -29.848 28 34 32
-46.427 -20.232 -29.812 31 37 35
-46.104 -20.233 -29.780 25 31 29
-45.780 -26.957 -14.286 189 160 144
-45.622 -26.955 -14.297 189 160 144
-45.464 -26.955 -14.311 190 162 148
-45.306 -26.954 -14.337 183 157 144
-45.146 -26.955 -14.369 187 167 156
-44.987 -26.957 -14.409 183 174 159
-44.828 -26.969 -14.435 184 181 166
-44.670 -26.993 -14.436 191 185 173
-44.525 -27.079 -14.290 185 177 166
-44.438 -27.414 -13.507 152 146 134
-44.292 -27.449 -13.505 152 148 136
-44.144 -27.479 -13.528 154 152 139
-43.997 -27.515 -13.544 147 143 131
-43.851 -27.551 -13.568 125 121 109
-43.704 -27.590 -13.596 143 139 127
-43.559 -27.634 -13.619 137 133 121
-43.414 -27.681 -13.646 145 141 129
-43.270 -27.730 -13.675 146 142 130
-43.127 -27.782 -13.706 149 145 133
-42.984 -27.838 -13.738 146 142 130
-42.843 -27.897 -13.769 148 145 136
-42.703 -27.961 -13.798 142 142 132
-42.565 -28.027 -13.829 142 142 132
-42.427 -28.098 -13.861 136 136 126
-42.291 -28.170 -13.895 139 141 128
-42.156 -28.247 -13.927 134 136 123
-42.024 -28.328 -13.957 135 137 124
-41.893 -28.412 -13.988 127 129 116
-41.764 -28.499 -14.020 130 132 119
-41.637 -28.589 -14.054 130 132 121
-41.511 -28.682 -14.087 122 123 115
-41.388 -28.779 -14.119 129 130 124
-41.267 -28.879 -14.153 130 131 123
-41.147 -28.982 -14.188 125 126 118
-41.030 -29.088 -14.223 125 126 118
-40.916 -29.197 -14.257 125 126 118
-40.805 -29.309 -14.289 128 129 121
-40.696 -29.425 -14.321 125 126 118
-40.590 -29.543 -14.352 124 125 117
-40.487 -29.665 -14.384 125 126 118
-40.386 -29.789 -14.417 119 120 112
-40.289 -29.915 -14.449 126 127 119
-40.194 -30.044 -14.483 126 127 119
-40.102 -30.176 -14.516 127 128 120
-40.013 -30.310 -14.550 125 126 118
-39.926 -30.446 -14.585 124 125 117
-39.843 -30.585 -14.620 127 128 120
-39.765 -30.726 -14.652 126 127 119
-39.689 -30.870 -14.685 123 124 116
-39.618 -31.015 -14.716 127 128 120
-39.549 -31.163 -14.749 128 129 121
-39.484 -31.313 -14.781 128 129 121
-39.422 -31.464 -14.813 167 168 160
-39.365 -31.617 -14.844 127 128 120
-39.312 -31.773 -14.874 131 132 124
-39.262 -31.929 -14.907 128 129 121
-39.215 -32.087 -14.939 117 118 110
-39.172 -32.246 -14.972 123 124 116
-39.134 -32.407 -15.003 127 128 120
-39.099 -32.569 -15.035 124 125 117
-39.068 -32.732 -15.068 128 129 121
-39.040 -32.896 -15.102 128 129 121
-39.018 -33.061 -15.135 127 128 120
-38.999 -33.226 -15.167 127 128 120
-38.984 -33.393 -15.200 129 130 122
-38.973 -33.560 -15.231 128 129 121
-38.967 -33.727 -15.262 129 130 122
-38.966 -33.895 -15.292 131 132 124
-38.969 -34.064 -15.320 128 129 121
-38.977 -34.232 -15.348 127 128 120
-38.988 -34.400 -15.378 125 126 118
-39.003 -34.569 -15.406 121 122 114
-39.023 -34.737 -15.434 123 124 116
-39.048 -34.905 -15.462 117 118 110
-39.076 -35.072 -15.490 126 127 119
-39.109 -35.239 -15.517 121 122 114
-39.145 -35.405 -15.546 130 131 123
-39.186 -35.571 -15.574 130 131 123
-39.231 -35.736 -15.602 125 126 118
-39.281 -35.900 -15.628 129 130 122
-39.335 -36.063 -15.655 161 162 154
-39.392 -36.225 -15.684 123 124 116
-39.453 -36.385 -15.712 122 123 115
-39.518 -36.545 -15.743 108 109 101
-39.586 -36.704 -15.773 116 117 109
-39.660 -36.860 -15.802 119 120 112
-39.738 -37.014 -15.826 120 121 113
-39.819 -37.168 -15.856 122 123 115
-39.906 -37.318 -15.879 120 121 113
-39.997 -37.466 -15.902 121 122 114
-40.090 -37.613 -15.929 117 118 110
-40.187 -37.758 -15.955 126 127 119
-40.288 -37.901 -15.981 121 122 114
-40.392 -38.041 -16.009 116 117 109
-40.499 -38.179 -16.036 116 117 109
-40.611 -38.315 -16.064 120 121 113
-40.725 -38.448 -16.091 119 120 112
-40.843 -38.579 -16.120 124 125 117
-40.964 -38.707 -16.149 123 124 116
-41.089 -38.832 -16.177 122 123 115
-41.217 -38.954 -16.205 128 129 121
-41.348 -39.073 -16.232 126 127 119
-41.481 -39.190 -16.265 126 127 119
-41.618 -39.303 -16.292 129 130 122
-41.759 -39.412 -16.319 132 134 123
-41.902 -39.517 -16.345 131 133 122
-42.048 -39.620 -16.372 130 132 121
-42.197 -39.719 -16.398 136 138 127
-42.348 -39.814 -16.425 136 138 125
-42.502 -39.907 -16.455 136 138 125
-42.657 -39.996 -16.485 137 139 126
-42.816 -40.081 -16.513 138 140 127
-42.976 -40.163 -16.545 136 138 125
-43.138 -40.243 -16.579 136 138 125
-43.303 -40.317 -16.609 139 141 128
-43.470 -40.387 -16.639 142 144 131
-43.638 -40.454 -16.673 142 142 130
-43.809 -40.516 -16.705 143 143 131
-43.981 -40.575 -16.736 143 143 131
-44.155 -40.630 -16.771 140 140 128
-44.331 -40.681 -16.804 137 139 126
-44.508 -40.726 -16.835 136 138 125
-44.686 -40.768 -16.867 134 136 123
-44.866 -40.805 -16.900 135 137 124
-45.047 -40.839 -16.934 136 138 125
-45.229 -40.868 -16.968 134 136 123
-45.412 -40.893 -17.002 138 140 127
-45.596 -40.913 -17.037 136 138 125
-45.780 -40.930 -17.072 128 126 114
-45.966 -40.940 -17.106 136 134 122
-46.152 -40.947 -17.138 143 141 129
-46.338 -40.950 -17.175 144 142 130
-46.525 -40.948 -17.212 146 144 131
-46.712 -40.943 -17.250 142 140 127
-46.899 -40.932 -17.287 137 135 122
-47.086 -40.916 -17.323 136 134 121
-47.273 -40.895 -17.357 133 133 121
-47.459 -40.869 -17.390 132 132 120
-47.646 -40.839 -17.426 133 133 121
-47.832 -40.805 -17.462 135 135 123
-48.017 -40.767 -17.501 138 138 126
-48.203 -40.725 -17.540 134 134 122
-48.387 -40.678 -17.580 131 131 119
-48.571 -40.628 -17.623 135 135 123
-48.755 -40.574 -17.669 134 134 124
-48.937 -40.514 -17.711 137 137 127
-49.118 -40.449 -17.751 130 130 120
-49.297 -40.379 -17.791 127 127 117
-49.475 -40.304 -17.831 122 124 113
-49.652 -40.226 -17.874 119 121 110
-49.827 -40.144 -17.919 116 118 107
-50.001 -40.057 -17.963 125 127 116
-50.173 -39.966 -18.005 120 123 114
-50.342 -39.869 -18.046 118 121 114
-50.509 -39.769 -18.088 123 125 120
-50.675 -39.665 -18.134 122 124 121
-50.840 -39.558 -18.183 83 87 86
-51.005 -39.449 -18.239 53 57 56
-51.166 -39.335 -18.294 60 64 65
-51.325 -39.216 -18.347 52 56 59
-51.482 -39.095 -18.406 49 54 58
-51.640 -38.971 -18.472 47 52 56
-51.805 -38.853 -18.575 38 43 47
-51.975 -38.736 -18.702 24 29 33
-52.139 -38.611 -18.817 19 27 30
-52.284 -38.468 -18.876 16 24 27
-52.409 -38.309 -18.883 16 24 27
-52.532 -38.148 -18.896 15 23 26
-52.653 -37.985 -18.917 19 24 30
-52.776 -37.822 -18.952 19 24 30
-52.899 -37.660 -19.003 18 23 29
-53.020 -37.494 -19.054 17 22 28
-53.132 -37.322 -19.095 16 24 27
-53.239 -37.147 -19.130 14 22 25
-53.340 -36.968 -19.160 12 20 23
-53.437 -36.787 -19.193 13 21 24
-53.530 -36.603 -19.227 15 20 24
-53.620 -36.417 -19.263 15 20 24
-53.706 -36.228 -19.301 15 20 24
-53.787 -36.038 -19.338 13 18 22
-53.864 -35.845 -19.376 12 20 23
-53.936 -35.650 -19.413 12 20 23
-54.004 -35.453 -19.452 11 19 22
-54.067 -35.254 -19.492 11 19 22
-54.127 -35.053 -19.535 14 19 23
-54.182 -34.851 -19.578 14 19 23
-54.232 -34.646 -19.621 13 18 22
-54.277 -34.441 -19.664 13 18 22
-54.317 -34.234 -19.708 13 18 22
-54.352 -34.025 -19.751 13 18 22
-54.382 -33.815 -19.792 13 18 22
-54.409 -33.605 -19.841 13 18 22
-54.433 -33.393 -19.897 10 18 21
-54.457 -33.180 -19.962 10 18 21
-54.477 -32.966 -20.033 10 15 19
-54.489 -32.750 -20.098 11 16 20
-54.495 -32.534 -20.160 12 17 21
-54.495 -32.318 -20.219 11 16 20
-54.490 -32.101 -20.282 11 16 20
-54.484 -31.883 -20.353 11 16 20
-54.476 -31.663 -20.436 9 17 19
-54.467 -31.442 -20.529 11 19 21
-54.452 -31.221 -20.622 12 20 22
-54.435 -30.998 -20.723 12 20 22
-54.456 -30.761 -20.943 13 22 21
-55.088 -30.318 -22.805 13 22 21
-55.891 -29.775 -25.173 19 28 27
-55.892 -29.492 -25.426 17 26 25
-55.895 -29.203 -25.706 15 24 23
-55.879 -28.916 -25.954 22 31 28
-55.834 -28.638 -26.143 28 34 30
-55.779 -28.360 -26.325 91 96 90
-55.707 -28.087 -26.482 100 99 95
-55.617 -27.820 -26.608 34 34 34
-55.520 -27.555 -26.735 10 16 16
-55.415 -27.292 -26.859 26 28 25
-55.310 -27.025 -27.003 80 81 76
-55.201 -26.758 -27.159 50 51 46
-55.080 -26.496 -27.299 81 82 77
-54.945 -26.241 -27.416 78 79 74
-54.803 -25.989 -27.535 74 73 71
-54.653 -25.739 -27.652 86 85 83
-54.499 -25.491 -27.775 95 95 93
-54.339 -25.244 -27.904 97 99 96
-54.178 -24.996 -28.051 98 98 96
-54.009 -24.750 -28.198 28 28 26
-53.829 -24.512 -28.330 20 24 23
-53.641 -24.280 -28.454 19 28 27
-53.446 -24.052 -28.578 24 28 29
-53.239 -23.835 -28.680 15 19 20
-53.032 -23.615 -28.804 19 25 25
-52.820 -23.398 -28.936 11 20 19
-52.603 -23.182 -29.077 17 28 22
-52.376 -22.978 -29.196 20 29 28
-52.138 -22.786 -29.293 18 23 26
-51.894 -22.601 -29.385 18 22 25
-51.644 -22.422 -29.479 16 20 21
-51.390 -22.249 -29.572 16 20 21
-51.130 -22.083 -29.661 17 21 22
-50.864 -21.924 -29.745 16 20 21
-50.593 -21.774 -29.825 14 18 17
-50.318 -21.631 -29.902 13 19 17
-50.037 -21.497 -29.971 11 20 17
-49.751 -21.374 -30.032 10 21 17
-49.461 -21.261 -30.081 12 18 18
-49.166 -21.160 -30.119 12 18 18
-48.866 -21.073 -30.140 11 17 17
-48.565 -20.994 -30.157 10 16 16
-48.261 -20.924 -30.170 10 16 16
-47.954 -20.865 -30.175 16 22 22
-47.645 -20.820 -30.164 27 33 31
-47.335 -20.788 -30.138 27 33 29
-47.024 -20.770 -30.098 28 34 32
-46.712 -20.759 -30.056 28 34 32
-46.401 -20.756 -30.017 25 31 29
-46.091 -20.752 -29.999 24 30 28
-45.780 -27.013 -14.951 191 159 144
-45.624 -27.014 -14.952 201 169 154
-45.467 -27.018 -14.959 188 159 145
-45.310 -27.019 -14.982 185 157 145
-45.153 -27.027 -14.995 185 161 149
-44.996 -27.032 -15.029 182 166 151
-44.838 -27.039 -15.066 192 185 169
-44.682 -27.062 -15.073 195 187 174
-44.527 -27.092 -15.069 192 184 171
-44.426 -27.360 -14.427 165 159 145
-44.306 -27.505 -14.128 146 143 128
-44.161 -27.541 -14.133 150 148 133
-44.016 -27.576 -14.149 147 143 131
-43.872 -27.616 -14.163 145 141 129
-43.728 -27.656 -14.189 150 146 134
-43.584 -27.699 -14.214 145 141 129
-43.442 -27.747 -14.236 141 137 125
-43.300 -27.797 -14.262 148 144 132
-43.159 -27.850 -14.291 153 149 137
-43.018 -27.905 -14.323 146 142 130
-42.878 -27.963 -14.357 147 145 133
-42.740 -28.026 -14.389 143 141 129
-42.603 -28.091 -14.422 146 144 132
-42.468 -28.161 -14.452 143 141 129
-42.333 -28.234 -14.485 143 143 131
-42.201 -28.310 -14.518 141 141 129
-42.070 -28.390 -14.549 137 137 125
-41.941 -28.473 -14.581 136 136 124
-41.814 -28.559 -14.613 132 134 121
-41.688 -28.648 -14.647 131 133 122
-41.564 -28.741 -14.681 132 133 125
-41.443 -28.837 -14.715 127 128 122
-41.323 -28.935 -14.749 128 129 121
-41.206 -29.037 -14.783 126 127 119
-41.090 -29.142 -14.818 127 128 120
-40.977 -29.250 -14.853 127 128 120
-40.868 -29.361 -14.885 129 130 122
-40.761 -29.476 -14.917 129 130 122
-40.657 -29.593 -14.948 126 127 119
-40.555 -29.713 -14.981 127 128 120
-40.455 -29.835 -15.016 126 127 119
-40.359 -29.959 -15.051 128 129 121
-40.265 -30.087 -15.085 125 126 118
-40.175 -30.217 -15.118 128 129 121
-40.088 -30.350 -15.151 128 129 121
-40.003 -30.485 -15.186 128 129 121
-39.921 -30.622 -15.221 123 124 116
-39.844 -30.761 -15.253 124 125 117
-39.769 -30.903 -15.287 125 126 118
-39.699 -31.047 -15.319 122 123 115
-39.632 -31.193 -15.351 124 125 117
-39.568 -31.340 -15.384 125 126 118
-39.508 -31.490 -15.415 125 126 118
-39.452 -31.641 -15.447 123 124 116
-39.399 -31.794 -15.478 120 121 113
-39.350 -31.949 -15.511 131 132 124
-39.304 -32.104 -15.545 127 128 120
-39.262 -32.262 -15.577 124 125 117
-39.225 -32.420 -15.609 125 126 118
-39.191 -32.580 -15.641 128 129 121
-39.160 -32.741 -15.674 127 128 120
-39.133 -32.902 -15.709 129 130 122
-39.111 -33.065 -15.742 136 137 129
-39.092 -33.229 -15.777 126 127 119
-39.077 -33.393 -15.811 128 129 121
-39.066 -33.558 -15.845 127 128 120
-39.060 -33.723 -15.878 128 129 121
-39.059 -33.889 -15.908 126 127 119
-39.062 -34.054 -15.936 127 128 120
-39.070 -34.220 -15.965 125 126 118
-39.082 -34.386 -15.992 133 134 126
-39.099 -34.552 -16.019 119 120 112
-39.118 -34.718 -16.049 128 129 121
-39.143 -34.883 -16.074 133 134 126
-39.172 -35.048 -16.101 126 127 119
-39.205 -35.213 -16.128 125 126 118
-39.242 -35.376 -16.154 125 126 118
-39.283 -35.539 -16.181 125 126 118
-39.328 -35.701 -16.208 126 127 119
-39.377 -35.863 -16.235 118 119 111
-39.430 -36.023 -16.263 127 128 120
-39.486 -36.183 -16.293 120 121 113
-39.547 -36.341 -16.321 124 125 117
-39.611 -36.498 -16.352 124 125 117
-39.679 -36.654 -16.381 122 123 115
-39.751 -36.808 -16.410 120 121 113
-39.828 -36.961 -16.439 121 122 114
-39.909 -37.111 -16.465 120 121 113
-39.994 -37.259 -16.491 119 120 112
-40.083 -37.406 -16.516 118 119 111
-40.175 -37.550 -16.542 122 123 115
-40.271 -37.692 -16.567 119 120 112
-40.371 -37.832 -16.593 122 123 115
-40.473 -37.971 -16.622 121 122 114
-40.579 -38.107 -16.651 120 121 113
-40.687 -38.242 -16.684 125 126 118
-40.797 -38.376 -16.725 118 119 111
-40.914 -38.505 -16.753 122 123 115
-41.033 -38.631 -16.783 124 125 117
-41.156 -38.754 -16.811 119 120 112
-41.282 -38.874 -16.840 120 121 113
-41.411 -38.991 -16.868 121 122 114
-41.544 -39.105 -16.895 125 126 118
-41.679 -39.216 -16.923 126 127 119
-41.818 -39.323 -16.951 126 127 119
-41.959 -39.427 -16.977 124 125 117
-42.102 -39.529 -17.008 126 127 119
-42.249 -39.626 -17.035 124 125 117
-42.397 -39.722 -17.068 121 123 112
-42.549 -39.813 -17.098 130 132 121
-42.703 -39.900 -17.127 132 134 123
-42.859 -39.984 -17.155 133 135 124
-43.017 -40.064 -17.185 137 139 126
-43.177 -40.141 -17.217 134 136 123
-43.340 -40.214 -17.248 140 142 129
-43.505 -40.282 -17.278 138 140 127
-43.671 -40.347 -17.309 144 144 132
-43.839 -40.408 -17.339 142 142 130
-44.009 -40.465 -17.370 144 144 132
-44.180 -40.519 -17.404 142 142 130
-44.353 -40.568 -17.438 146 148 135
-44.528 -40.613 -17.470 137 139 126
-44.703 -40.654 -17.502 139 141 128
-44.880 -40.690 -17.536 137 139 126
-45.058 -40.723 -17.570 135 137 124
-45.238 -40.752 -17.605 136 138 125
-45.418 -40.775 -17.639 133 135 122
-45.599 -40.795 -17.673 138 140 127
-45.780 -40.811 -17.710 136 136 124
-45.963 -40.821 -17.743 137 137 125
-46.146 -40.827 -17.776 138 138 126
-46.329 -40.829 -17.811 136 136 124
-46.513 -40.827 -17.849 134 135 121
-46.697 -40.822 -17.887 139 140 126
-46.881 -40.811 -17.925 136 137 123
-47.065 -40.796 -17.963 137 138 124
-47.249 -40.775 -17.998 139 139 127
-47.432 -40.749 -18.032 136 136 124
-47.616 -40.720 -18.069 139 139 127
-47.799 -40.686 -18.106 137 137 125
-47.981 -40.648 -18.144 138 138 126
-48.163 -40.605 -18.181 137 137 125
-48.344 -40.558 -18.220 140 140 128
-48.525 -40.508 -18.264 136 136 124
-48.706 -40.454 -18.308 132 132 120
-48.885 -40.395 -18.352 138 138 126
-49.062 -40.331 -18.394 138 138 126
-49.239 -40.263 -18.436 131 131 119
-49.414 -40.191 -18.481 124 126 115
-49.588 -40.115 -18.526 128 130 119
-49.761 -40.034 -18.572 126 128 117
-49.932 -39.948 -18.615 128 130 119
-50.100 -39.857 -18.658 127 129 118
-50.267 -39.763 -18.701 121 123 112
-50.432 -39.664 -18.746 123 125 112
-50.596 -39.563 -18.796 123 125 114
-50.759 -39.459 -18.851 125 126 120
-50.921 -39.352 -18.910 120 121 116
-51.080 -39.240 -18.967 120 120 118
-51.237 -39.124 -19.025 105 105 105
-51.392 -39.005 -19.087 69 70 72
-51.546 -38.882 -19.150 61 62 64
-51.697 -38.755 -19.216 61 62 64
-51.845 -38.624 -19.280 55 56 58
-51.990 -38.489 -19.345 54 60 60
-52.132 -38.350 -19.408 42 51 50
-52.269 -38.205 -19.464 39 47 49
-52.401 -38.056 -19.516 35 43 46
-52.530 -37.903 -19.569 33 38 44
-52.656 -37.746 -19.622 31 36 42
-52.776 -37.586 -19.671 31 36 42
-52.891 -37.421 -19.714 30 35 41
-52.999 -37.251 -19.747 23 31 34
-53.102 -37.078 -19.778 22 30 32
-53.199 -36.902 -19.805 19 27 29
-53.293 -36.723 -19.833 19 27 29
-53.383 -36.542 -19.863 20 25 29
-53.468 -36.358 -19.893 19 24 28
-53.550 -36.173 -19.925 19 24 28
-53.628 -35.985 -19.959 17 22 26
-53.701 -35.795 -19.991 13 21 24
-53.769 -35.604 -20.024 16 24 27
-53.834 -35.410 -20.059 16 24 27
-53.894 -35.215 -20.095 15 23 26
-53.950 -35.018 -20.132 16 21 25
-54.001 -34.819 -20.169 16 21 25
-54.047 -34.619 -20.204 15 20 24
-54.088 -34.417 -20.239 14 19 23
-54.124 -34.215 -20.275 14 19 23
-54.155 -34.011 -20.312 14 19 23
-54.182 -33.805 -20.348 15 20 24
-54.205 -33.600 -20.391 14 19 23
-54.225 -33.393 -20.438 13 18 22
-54.243 -33.185 -20.491 12 17 21
-54.257 -32.976 -20.548 9 17 20
-54.263 -32.767 -20.599 8 16 19
-54.263 -32.557 -20.647 9 17 20
-54.258 -32.347 -20.694 9 17 20
-54.248 -32.137 -20.745 9 17 20
-54.236 -31.926 -20.802 9 17 20
-54.222 -31.714 -20.868 11 19 21
-54.205 -31.501 -20.940 13 21 23
-54.185 -31.288 -21.020 14 22 24
-54.160 -31.074 -21.101 12 20 22
-54.127 -30.861 -21.173 12 20 22
-54.073 -30.653 -21.204 16 24 26
-54.703 -30.200 -23.179 22 30 32
-55.177 -29.768 -24.759 18 26 28
-55.426 -29.398 -25.738 12 22 21
-55.441 -29.110 -26.076 23 32 31
-55.409 -28.839 -26.298 22 31 28
-55.360 -28.571 -26.496 36 42 38
-55.294 -28.308 -26.661 134 135 130
-55.212 -28.050 -26.801 70 72 71
-55.119 -27.796 -26.927 24 28 29
-55.016 -27.544 -27.044 72 72 70
-54.916 -27.289 -27.191 48 49 44
-54.809 -27.034 -27.340 78 79 74
-54.691 -26.784 -27.477 73 74 69
-54.562 -26.540 -27.596 129 130 125
-54.425 -26.298 -27.712 74 70 71
-54.281 -26.060 -27.829 36 35 33
-54.135 -25.821 -27.958 32 31 26
-53.982 -25.584 -28.089 65 66 58
-53.827 -25.346 -28.235 80 82 77
-53.666 -25.110 -28.385 74 76 73
-53.495 -24.882 -28.520 20 24 23
-53.313 -24.660 -28.641 21 25 26
-53.125 -24.444 -28.759 28 29 31
-52.929 -24.233 -28.870 18 22 23
-52.727 -24.026 -28.984 17 23 23
-52.522 -23.820 -29.110 13 22 21
-52.316 -23.611 -29.257 13 22 21
-52.099 -23.415 -29.379 22 28 26
-51.868 -23.237 -29.459 26 30 29
-51.633 -23.061 -29.549 27 29 28
-51.394 -22.890 -29.640 16 20 19
-51.151 -22.724 -29.735 16 20 19
-50.902 -22.564 -29.826 18 22 21
-50.648 -22.413 -29.911 17 21 20
-50.388 -22.268 -29.993 15 19 18
-50.125 -22.130 -30.074 14 20 18
-49.856 -22.002 -30.144 13 22 19
-49.583 -21.882 -30.208 10 21 17
-49.305 -21.773 -30.263 12 18 18
-49.023 -21.675 -30.304 11 17 17
-48.737 -21.591 -30.326 9 15 15
-48.447 -21.516 -30.341 9 15 15
-48.156 -21.450 -30.353 11 17 17
-47.863 -21.393 -30.359 16 22 22
-47.567 -21.348 -30.351 24 30 28
-47.270 -21.317 -30.328 25 31 27
-46.971 -21.302 -30.279 25 31 27
-46.673 -21.289 -30.247 26 32 28
-46.375 -21.288 -30.199 24 30 26
-46.078 -21.288 -30.170 22 28 24
-45.780 -27.095 -15.602 185 152 137
-45.626 -27.092 -15.615 184 152 137
-45.471 -27.092 -15.630 189 157 144
-45.316 -27.096 -15.646 193 163 152
-45.162 -27.112 -15.638 190 160 149
-45.006 -27.112 -15.685 187 165 152
-44.851 -27.126 -15.705 193 181 165
-44.696 -27.142 -15.731 193 186 170
-44.544 -27.176 -15.715 190 183 167
-44.396 -27.228 -15.659 184 178 162
-44.324 -27.577 -14.756 161 158 141
-44.183 -27.620 -14.741 147 146 128
-44.039 -27.653 -14.763 150 146 134
-43.898 -27.693 -14.776 148 144 132
-43.755 -27.732 -14.802 149 145 133
-43.613 -27.774 -14.832 145 141 129
-43.472 -27.819 -14.860 143 139 127
-43.332 -27.869 -14.885 150 146 134
-43.193 -27.921 -14.916 152 148 136
-43.053 -27.975 -14.951 147 143 131
-42.915 -28.033 -14.986 145 141 129
-42.779 -28.095 -15.018 148 144 132
-42.644 -28.160 -15.050 146 142 130
-42.511 -28.229 -15.080 145 141 129
-42.379 -28.301 -15.114 144 142 130
-42.248 -28.377 -15.147 144 142 130
-42.118 -28.455 -15.182 141 139 127
-41.991 -28.537 -15.214 140 138 126
-41.865 -28.622 -15.247 137 137 125
-41.741 -28.710 -15.282 134 136 125
-41.619 -28.802 -15.317 130 131 123
-41.500 -28.897 -15.351 130 131 125
-41.382 -28.994 -15.384 129 130 122
-41.266 -29.095 -15.420 126 127 119
-41.153 -29.198 -15.456 125 126 118
-41.041 -29.305 -15.492 125 126 118
-40.933 -29.415 -15.525 123 124 116
-40.828 -29.528 -15.557 127 128 120
-40.725 -29.644 -15.590 127 128 120
-40.626 -29.762 -15.621 123 124 116
-40.528 -29.883 -15.656 130 131 123
-40.433 -30.006 -15.691 126 127 119
-40.340 -30.132 -15.726 126 127 119
-40.251 -30.260 -15.761 129 130 122
-40.164 -30.391 -15.798 124 125 117
-40.080 -30.524 -15.835 128 129 121
-39.999 -30.658 -15.873 125 126 118
-39.922 -30.796 -15.910 125 126 118
-39.848 -30.935 -15.947 132 133 125
-39.777 -31.077 -15.983 126 127 119
-39.711 -31.221 -16.018 125 126 118
-39.647 -31.367 -16.053 124 125 117
-39.588 -31.514 -16.086 126 127 119
-39.533 -31.664 -16.118 125 126 118
-39.481 -31.815 -16.149 131 132 124
-39.433 -31.967 -16.182 133 134 126
-39.388 -32.121 -16.216 116 117 109
-39.349 -32.277 -16.245 128 129 121
-39.313 -32.433 -16.273 126 127 119
-39.280 -32.591 -16.304 128 129 121
-39.251 -32.750 -16.337 127 128 120
-39.224 -32.909 -16.373 127 128 120
-39.202 -33.070 -16.408 127 128 120
-39.183 -33.231 -16.445 132 133 125
-39.168 -33.393 -16.481 121 122 114
-39.158 -33.555 -16.515 126 127 119
-39.150 -33.718 -16.552 129 130 122
-39.148 -33.882 -16.588 131 132 124
-39.151 -34.046 -16.619 138 139 131
-39.158 -34.210 -16.649 131 132 124
-39.170 -34.373 -16.677 129 130 122
-39.187 -34.537 -16.703 126 127 119
-39.206 -34.700 -16.733 125 126 118
-39.231 -34.863 -16.760 127 128 120
-39.260 -35.026 -16.787 127 128 120
-39.293 -35.188 -16.814 127 128 120
-39.329 -35.350 -16.843 128 129 121
-39.368 -35.511 -16.874 124 125 117
-39.413 -35.671 -16.902 119 120 112
-39.461 -35.830 -16.929 108 109 101
-39.514 -35.988 -16.956 120 121 113
-39.571 -36.145 -16.984 115 116 108
-39.628 -36.303 -17.021 121 122 114
-39.694 -36.457 -17.045 120 121 113
-39.762 -36.610 -17.074 122 123 115
-39.834 -36.761 -17.101 122 123 115
-39.910 -36.911 -17.128 124 125 117
-39.990 -37.060 -17.156 121 122 114
-40.073 -37.206 -17.184 122 123 115
-40.160 -37.351 -17.213 117 118 110
-40.251 -37.494 -17.241 123 124 116
-40.346 -37.634 -17.267 122 123 115
-40.443 -37.773 -17.299 122 123 115
-40.545 -37.909 -17.325 126 127 119
-40.649 -38.043 -17.354 120 121 113
-40.758 -38.175 -17.382 122 123 115
-40.869 -38.304 -17.411 125 126 118
-40.984 -38.430 -17.440 118 119 111
-41.102 -38.554 -17.468 121 122 114
-41.224 -38.675 -17.496 120 121 113
-41.349 -38.792 -17.523 122 123 115
-41.476 -38.908 -17.552 119 120 112
-41.608 -39.019 -17.577 116 117 109
-41.742 -39.127 -17.601 119 120 112
-41.879 -39.232 -17.626 125 126 120
-42.019 -39.333 -17.651 123 124 118
-42.161 -39.432 -17.677 123 124 118
-42.306 -39.527 -17.703 121 122 116
-42.453 -39.619 -17.730 115 116 108
-42.602 -39.708 -17.759 124 125 117
-42.753 -39.793 -17.788 120 121 113
-42.907 -39.875 -17.817 130 131 123
-43.063 -39.953 -17.846 128 130 117
-43.221 -40.029 -17.878 134 136 123
-43.381 -40.099 -17.907 134 136 123
-43.543 -40.166 -17.936 136 138 125
-43.707 -40.229 -17.966 137 137 125
-43.872 -40.288 -17.996 134 134 122
-44.039 -40.344 -18.027 136 136 124
-44.208 -40.396 -18.061 142 142 130
-44.378 -40.445 -18.096 136 138 125
-44.549 -40.489 -18.128 132 134 121
-44.722 -40.529 -18.161 141 143 130
-44.896 -40.565 -18.196 137 139 126
-45.071 -40.596 -18.229 136 138 125
-45.247 -40.623 -18.263 139 141 128
-45.424 -40.646 -18.297 135 137 124
-45.602 -40.665 -18.330 135 137 124
-45.780 -40.680 -18.366 137 139 126
-45.960 -40.691 -18.402 138 140 127
-46.139 -40.696 -18.437 137 139 126
-46.319 -40.698 -18.472 137 139 126
-46.500 -40.695 -18.508 140 142 128
-46.680 -40.689 -18.545 137 139 125
-46.861 -40.678 -18.583 139 141 127
-47.042 -40.662 -18.619 137 139 125
-47.222 -40.641 -18.653 139 139 127
-47.402 -40.615 -18.687 136 136 124
-47.582 -40.586 -18.724 133 133 121
-47.762 -40.552 -18.761 134 134 122
-47.941 -40.514 -18.798 133 133 121
-48.119 -40.472 -18.836 135 135 123
-48.297 -40.426 -18.876 140 140 128
-48.474 -40.376 -18.918 138 138 126
-48.651 -40.322 -18.963 134 135 121
-48.827 -40.265 -19.008 137 138 124
-49.001 -40.202 -19.051 136 137 123
-49.174 -40.135 -19.095 136 137 123
-49.346 -40.064 -19.141 131 133 120
-49.518 -39.990 -19.190 134 136 123
-49.687 -39.911 -19.240 127 129 116
-49.856 -39.828 -19.289 128 130 117
-50.022 -39.741 -19.337 123 123 115
-50.186 -39.648 -19.383 123 123 115
-50.348 -39.552 -19.431 126 126 116
-50.509 -39.452 -19.482 131 131 119
-50.670 -39.350 -19.539 130 130 120
-50.828 -39.244 -19.598 123 123 113
-50.984 -39.134 -19.656 124 124 116
-51.139 -39.021 -19.718 120 119 114
-51.291 -38.904 -19.782 117 118 112
-51.442 -38.783 -19.849 113 114 108
-51.592 -38.660 -19.919 125 126 120
-51.737 -38.531 -19.984 117 118 112
-51.877 -38.396 -20.044 81 84 77
-52.015 -38.258 -20.103 58 60 55
-52.149 -38.116 -20.161 56 58 57
-52.279 -37.970 -20.215 56 57 61
-52.404 -37.818 -20.262 50 55 61
-52.524 -37.663 -20.306 44 49 55
-52.639 -37.504 -20.348 42 47 53
-52.749 -37.341 -20.385 42 47 53
-52.855 -37.174 -20.418 36 44 47
-52.954 -37.004 -20.447 33 41 43
-53.050 -36.831 -20.475 29 37 39
-53.142 -36.656 -20.504 27 35 37
-53.229 -36.478 -20.533 27 32 36
-53.313 -36.298 -20.564 26 31 35
-53.392 -36.116 -20.594 24 29 33
-53.467 -35.932 -20.623 22 27 31
-53.536 -35.745 -20.650 20 28 31
-53.600 -35.557 -20.676 23 31 34
-53.661 -35.367 -20.705 20 28 31
-53.717 -35.175 -20.734 19 27 30
-53.770 -34.982 -20.766 19 24 28
-53.817 -34.787 -20.796 19 24 28
-53.859 -34.591 -20.825 15 20 24
-53.896 -34.394 -20.853 17 22 26
-53.928 -34.195 -20.882 16 21 25
-53.956 -33.996 -20.912 16 21 25
-53.979 -33.796 -20.941 16 21 25
-53.999 -33.595 -20.977 15 20 24
-54.016 -33.393 -21.017 15 18 23
-54.029 -33.190 -21.061 13 18 22
-54.039 -32.987 -21.108 11 19 22
-54.042 -32.783 -21.151 9 19 21
-54.039 -32.579 -21.192 9 19 21
-54.031 -32.375 -21.234 9 19 21
-54.019 -32.171 -21.278 11 21 23
-54.003 -31.966 -21.323 11 21 23
-53.983 -31.761 -21.373 13 21 23
-53.959 -31.556 -21.427 11 19 21
-53.932 -31.351 -21.486 10 18 20
-53.902 -31.145 -21.551 12 20 22
-53.867 -30.940 -21.616 10 18 21
-53.819 -30.737 -21.661 10 18 21
-53.771 -30.534 -21.718 10 18 21
-53.731 -30.326 -21.817 11 19 22
-53.837 -30.056 -22.371 9 19 20
-55.001 -29.306 -26.188 17 27 28
-54.996 -29.034 -26.492 17 26 25
-54.956 -28.774 -26.708 18 27 24
-54.897 -28.520 -26.891 116 119 112
-54.820 -28.272 -27.035 81 86 82
-54.725 -28.032 -27.144 83 87 86
-54.624 -27.793 -27.254 62 61 57
-54.519 -27.554 -27.371 30 29 25
-54.418 -27.310 -27.525 102 103 98
-54.303 -27.072 -27.656 84 85 80
-54.178 -26.839 -27.771 6 7 2
-54.051 -26.605 -27.903 102 102 100
-53.912 -26.379 -28.012 23 23 21
-53.771 -26.150 -28.140 14 16 15
-53.625 -25.924 -28.271 17 21 20
-53.478 -25.695 -28.423 12 17 13
-53.326 -25.467 -28.585 89 94 90
-53.162 -25.248 -28.721 21 25 24
-52.987 -25.038 -28.837 26 27 29
-52.808 -24.829 -28.961 41 42 44
-52.620 -24.629 -29.070 24 28 29
-52.425 -24.434 -29.174 18 24 24
-52.226 -24.241 -29.286 12 21 20
-52.025 -24.048 -29.411 14 19 22
-51.817 -23.860 -29.536 30 34 33
-51.603 -23.678 -29.653 24 27 20
-51.381 -23.507 -29.754 29 31 26
-51.151 -23.344 -29.843 27 32 28
-50.918 -23.187 -29.932 29 34 30
-50.679 -23.036 -30.021 25 30 26
-50.435 -22.892 -30.103 27 32 28
-50.183 -22.764 -30.153 26 30 29
-49.931 -22.632 -30.233 19 25 23
-49.674 -22.511 -30.302 11 20 17
-49.413 -22.397 -30.363 8 19 15
-49.147 -22.294 -30.414 10 16 16
-48.878 -22.200 -30.456 10 16 16
-48.604 -22.119 -30.482 9 15 15
-48.328 -22.046 -30.502 9 15 15
-48.050 -21.982 -30.517 9 15 15
-47.770 -21.928 -30.520 15 21 21
-47.489 -21.873 -30.549 26 32 30
-47.204 -21.848 -30.509 30 36 32
-46.919 -21.838 -30.450 31 38 31
-46.633 -21.831 -30.400 31 38 31
-46.349 -21.830 -30.356 28 35 28
-46.065 -21.821 -30.351 33 40 33
-45.780 -27.217 -16.193 182 150 135
-45.629 -27.211 -16.217 187 155 140
-45.477 -27.215 -16.222 189 157 144
-45.325 -27.222 -16.229 189 157 146
-45.174 -27.238 -16.219 182 154 140
-45.022 -27.245 -16.248 188 160 148
-44.870 -27.256 -16.276 188 174 161
-44.718 -27.268 -16.311 185 179 165
-44.569 -27.302 -16.294 180 173 157
-44.423 -27.347 -16.255 181 174 158
-44.343 -27.656 -15.422 156 149 133
-44.215 -27.734 -15.296 150 144 130
-44.074 -27.768 -15.317 152 149 134
-43.936 -27.808 -15.326 152 149 134
-43.797 -27.850 -15.343 147 144 129
-43.658 -27.892 -15.369 148 145 130
-43.521 -27.938 -15.394 149 146 131
-43.384 -27.987 -15.420 151 148 133
-43.248 -28.039 -15.448 155 152 137
-43.112 -28.092 -15.483 149 145 133
-42.977 -28.148 -15.521 148 144 132
-42.843 -28.207 -15.557 142 138 126
-42.710 -28.271 -15.592 143 139 127
-42.580 -28.339 -15.623 144 140 128
-42.451 -28.410 -15.656 146 142 130
-42.323 -28.484 -15.689 147 143 131
-42.197 -28.561 -15.723 137 138 124
-42.073 -28.642 -15.754 141 142 128
-41.950 -28.725 -15.787 137 137 125
-41.829 -28.812 -15.822 135 135 125
-41.710 -28.901 -15.858 115 115 107
-41.592 -28.994 -15.893 127 126 121
-41.477 -29.089 -15.931 133 133 125
-41.363 -29.187 -15.968 130 130 122
-41.252 -29.288 -16.006 130 130 122
-41.143 -29.392 -16.044 129 129 121
-41.037 -29.500 -16.078 127 127 119
-40.933 -29.610 -16.113 126 126 118
-40.833 -29.724 -16.146 128 128 120
-40.735 -29.840 -16.179 126 126 118
-40.639 -29.958 -16.215 125 126 118
-40.546 -30.078 -16.251 134 135 127
-40.456 -30.201 -16.288 130 131 123
-40.368 -30.327 -16.324 128 129 121
-40.284 -30.455 -16.359 124 125 117
-40.203 -30.585 -16.395 126 127 119
-40.125 -30.718 -16.431 124 125 117
-40.049 -30.852 -16.468 129 130 122
-39.977 -30.989 -16.504 124 125 117
-39.910 -31.128 -16.537 126 127 119
-39.845 -31.269 -16.571 121 122 114
-39.784 -31.412 -16.605 123 124 116
-39.726 -31.556 -16.637 122 123 115
-39.674 -31.703 -16.666 119 120 112
-39.625 -31.851 -16.693 126 127 119
-39.580 -32.000 -16.722 126 127 119
-39.537 -32.151 -16.752 130 131 123
-39.498 -32.303 -16.784 130 131 123
-39.462 -32.455 -16.818 127 128 120
-39.428 -32.609 -16.855 126 127 119
-39.398 -32.764 -16.892 126 127 119
-39.369 -32.920 -16.938 127 128 120
-39.347 -33.077 -16.974 128 129 121
-39.331 -33.234 -17.005 125 126 118
-39.316 -33.393 -17.044 130 131 123
-39.306 -33.552 -17.078 125 126 118
-39.300 -33.711 -17.113 129 130 122
-39.298 -33.871 -17.147 124 125 117
-39.302 -34.031 -17.177 130 131 123
-39.310 -34.191 -17.207 124 125 117
-39.322 -34.351 -17.235 127 128 120
-39.338 -34.511 -17.261 131 132 124
-39.358 -34.670 -17.291 129 130 122
-39.379 -34.830 -17.327 129 130 122
-39.405 -34.990 -17.361 127 128 120
-39.437 -35.148 -17.389 128 129 121
-39.473 -35.306 -17.419 128 129 121
-39.512 -35.464 -17.448 126 127 119
-39.556 -35.620 -17.475 126 127 119
-39.605 -35.775 -17.500 131 132 124
-39.657 -35.929 -17.525 128 129 121
-39.713 -36.082 -17.551 124 125 117
-39.772 -36.235 -17.581 128 129 121
-39.834 -36.386 -17.610 122 123 115
-39.900 -36.536 -17.642 121 122 114
-39.971 -36.684 -17.671 121 122 114
-40.045 -36.830 -17.699 126 127 119
-40.123 -36.975 -17.728 125 126 118
-40.204 -37.119 -17.756 113 114 106
-40.290 -37.260 -17.784 122 123 115
-40.378 -37.399 -17.813 118 119 111
-40.471 -37.537 -17.842 120 121 113
-40.566 -37.672 -17.871 109 110 102
-40.665 -37.805 -17.901 120 121 113
-40.768 -37.936 -17.930 126 127 119
-40.871 -38.067 -17.970 120 121 113
-40.979 -38.194 -18.003 125 126 118
-41.092 -38.318 -18.032 122 123 115
-41.208 -38.438 -18.060 126 127 119
-41.327 -38.556 -18.088 120 121 113
-41.449 -38.671 -18.115 124 125 117
-41.574 -38.783 -18.142 122 123 115
-41.702 -38.892 -18.170 119 120 112
-41.833 -38.998 -18.196 119 120 112
-41.967 -39.100 -18.221 122 123 115
-42.103 -39.200 -18.248 121 122 114
-42.243 -39.295 -18.273 123 124 116
-42.384 -39.388 -18.299 120 121 113
-42.528 -39.478 -18.325 123 124 116
-42.674 -39.564 -18.353 119 120 112
-42.823 -39.646 -18.379 125 126 118
-42.973 -39.726 -18.407 128 129 121
-43.126 -39.802 -18.436 127 128 120
-43.280 -39.875 -18.468 129 130 122
-43.436 -39.945 -18.499 123 124 116
-43.595 -40.010 -18.529 129 130 122
-43.755 -40.071 -18.560 121 122 114
-43.917 -40.128 -18.588 129 130 122
-44.080 -40.181 -18.616 123 124 116
-44.245 -40.230 -18.645 125 126 118
-44.411 -40.276 -18.675 131 133 120
-44.579 -40.318 -18.705 123 125 112
-44.748 -40.356 -18.737 130 132 119
-44.917 -40.391 -18.771 129 131 118
-45.088 -40.421 -18.805 135 137 124
-45.260 -40.447 -18.837 133 135 122
-45.433 -40.468 -18.868 131 133 120
-45.606 -40.486 -18.901 133 135 122
-45.780 -40.500 -18.937 139 141 130
-45.955 -40.510 -18.973 132 133 125
-46.130 -40.516 -19.009 128 129 121
-46.306 -40.517 -19.045 130 131 123
-46.482 -40.514 -19.081 131 133 120
-46.658 -40.508 -19.119 136 138 125
-46.834 -40.498 -19.160 134 136 123
-47.011 -40.483 -19.199 131 133 120
-47.187 -40.463 -19.238 138 140 129
-47.363 -40.439 -19.275 134 135 127
-47.539 -40.412 -19.315 133 134 126
-47.714 -40.379 -19.355 132 133 125
-47.889 -40.343 -19.395 135 137 124
-48.063 -40.301 -19.432 135 137 124
-48.236 -40.255 -19.471 130 132 119
-48.409 -40.206 -19.512 132 134 121
-48.581 -40.153 -19.556 133 133 121
-48.752 -40.096 -19.601 130 130 118
-48.922 -40.035 -19.645 136 136 124
-49.091 -39.969 -19.690 137 137 125
-49.259 -39.900 -19.736 134 134 122
-49.426 -39.827 -19.786 133 133 121
-49.591 -39.751 -19.837 135 135 123
-49.755 -39.670 -19.887 137 137 125
-49.918 -39.584 -19.937 128 128 118
-50.078 -39.495 -19.986 130 130 120
-50.237 -39.402 -20.039 130 130 118
-50.395 -39.306 -20.096 128 128 116
-50.551 -39.206 -20.155 128 128 118
-50.706 -39.102 -20.213 124 124 116
-50.858 -38.994 -20.271 113 113 105
-51.008 -38.883 -20.332 113 113 105
-51.157 -38.769 -20.398 121 121 113
-51.304 -38.651 -20.467 115 115 107
-51.448 -38.530 -20.534 113 113 105
-51.588 -38.402 -20.595 117 117 109
-51.725 -38.271 -20.652 116 116 106
-51.857 -38.135 -20.709 113 113 105
-51.987 -37.996 -20.764 116 116 108
-52.112 -37.852 -20.815 113 112 107
-52.233 -37.704 -20.863 91 93 90
-52.349 -37.552 -20.904 60 62 61
-52.460 -37.397 -20.943 54 56 55
-52.569 -37.238 -20.983 55 57 56
-52.673 -37.077 -21.022 43 48 44
-52.772 -36.912 -21.060 48 53 49
-52.867 -36.744 -21.093 40 49 46
-52.957 -36.574 -21.124 38 48 47
-53.041 -36.400 -21.152 40 49 48
-53.120 -36.224 -21.174 37 45 47
-53.192 -36.045 -21.190 33 41 43
-53.261 -35.864 -21.207 36 44 47
-53.326 -35.682 -21.228 32 40 42
-53.388 -35.498 -21.254 29 37 39
-53.448 -35.313 -21.285 27 35 37
-53.503 -35.127 -21.315 25 33 36
-53.553 -34.939 -21.346 24 29 32
-53.598 -34.749 -21.375 24 29 32
-53.639 -34.558 -21.403 23 28 31
-53.673 -34.366 -21.427 21 26 29
-53.703 -34.173 -21.452 19 27 30
-53.729 -33.979 -21.478 17 25 28
-53.749 -33.784 -21.502 16 24 27
-53.766 -33.589 -21.533 14 22 25
-53.780 -33.393 -21.567 14 19 22
-53.791 -33.196 -21.604 13 18 21
-53.797 -32.999 -21.644 15 20 23
-53.797 -32.801 -21.680 14 19 22
-53.794 -32.604 -21.720 11 21 22
-53.787 -32.405 -21.764 11 19 21
-53.775 -32.207 -21.810 11 19 21
-53.760 -32.008 -21.857 14 19 22
-53.740 -31.809 -21.908 13 19 19
-53.718 -31.610 -21.965 13 19 19
-53.692 -31.411 -22.026 13 19 19
-53.662 -31.212 -22.091 12 18 18
-53.628 -31.012 -22.157 11 19 22
-53.584 -30.815 -22.210 11 18 24
-53.545 -30.615 -22.292 10 17 23
-53.512 -30.410 -22.412 10 17 23
-53.498 -30.196 -22.608 8 16 18
-54.399 -29.573 -25.770 10 18 20
-54.609 -29.217 -26.769 20 25 28
-54.567 -28.970 -26.979 23 28 31
-54.511 -28.726 -27.162 90 95 89
-54.443 -28.486 -27.329 104 106 101
-54.346 -28.259 -27.418 68 73 69
-54.244 -28.033 -27.511 42 44 39
-54.134 -27.811 -27.596 100 103 94
-54.036 -27.579 -27.746 55 57 52
-53.922 -27.354 -27.862 16 16 14
-53.803 -27.132 -27.979 73 74 69
-53.678 -26.911 -28.099 127 128 123
-53.551 -26.690 -28.230 81 82 77
-53.410 -26.478 -28.334 17 19 16
-53.273 -26.260 -28.474 11 15 16
-53.132 -26.041 -28.627 14 19 15
-52.995 -25.815 -28.824 82 87 83
-52.839 -25.604 -28.966 21 27 25
-52.671 -25.405 -29.077 23 29 29
-52.498 -25.207 -29.194 38 42 41
-52.315 -25.020 -29.289 53 57 56
-52.126 -24.836 -29.383 20 26 24
-51.932 -24.658 -29.473 15 24 23
-51.738 -24.476 -29.591 17 22 25
-51.542 -24.295 -29.724 17 21 22
-51.336 -24.123 -29.837 110 111 106
-51.123 -23.962 -29.931 115 114 109
-50.904 -23.808 -30.017 8 10 7
-50.680 -23.659 -30.104 21 23 20
-50.454 -23.512 -30.200 13 15 12
-50.222 -23.374 -30.284 21 23 18
-49.984 -23.246 -30.356 18 20 19
-49.745 -23.116 -30.448 21 23 22
-49.500 -22.997 -30.527 16 20 19
-49.251 -22.886 -30.596 16 20 19
-48.998 -22.787 -30.650 9 15 13
-48.741 -22.696 -30.697 16 22 20
-48.480 -22.616 -30.727 11 17 15
-48.216 -22.547 -30.747 18 24 22
-47.950 -22.488 -30.753 15 19 18
-47.681 -22.440 -30.747 18 22 21
-47.410 -22.405 -30.724 28 34 30
-47.138 -22.383 -30.679 32 41 36
-46.866 -22.373 -30.620 27 33 29
-46.594 -22.363 -30.580 23 29 25
-46.323 -22.357 -30.548 21 27 23
-46.051 -22.367 -30.490 21 27 23
-45.780 -27.332 -16.862 184 155 139
-45.632 -27.327 -16.885 189 160 144
-45.483 -27.329 -16.896 187 158 144
-45.334 -27.335 -16.905 191 161 150
-45.185 -27.351 -16.896 186 160 145
-45.037 -27.362 -16.913 186 156 145
-44.888 -27.374 -16.936 176 160 147
-44.737 -27.380 -16.992 186 180 166
-44.591 -27.411 -16.983 191 183 170
-44.448 -27.458 -16.932 185 178 162
-44.348 -27.673 -16.352 161 154 138
-44.241 -27.828 -15.970 156 149 133
-44.105 -27.868 -15.968 153 147 131
-43.968 -27.907 -15.980 153 147 131
-43.833 -27.949 -15.995 153 147 131
-43.696 -27.990 -16.022 152 146 130
-43.561 -28.034 -16.051 152 149 132
-43.427 -28.083 -16.076 150 147 130
-43.293 -28.133 -16.109 146 143 128
-43.159 -28.185 -16.144 146 142 130
-43.027 -28.241 -16.182 144 140 128
-42.895 -28.300 -16.218 147 143 131
-42.765 -28.362 -16.253 145 141 129
-42.637 -28.429 -16.286 141 137 125
-42.510 -28.498 -16.320 144 140 128
-42.385 -28.571 -16.355 144 142 129
-42.260 -28.647 -16.391 143 141 128
-42.138 -28.726 -16.425 137 138 124
-42.018 -28.808 -16.460 135 135 123
-41.898 -28.892 -16.497 135 135 125
-41.782 -28.981 -16.533 130 130 122
-41.666 -29.072 -16.569 129 129 121
-41.553 -29.165 -16.606 130 130 122
-41.442 -29.262 -16.645 129 129 121
-41.332 -29.361 -16.684 129 129 121
-41.226 -29.464 -16.721 126 126 118
