ply
format ascii 1.0
element vertex 1383
property float x
property float y
property float z
property uchar red
property uchar green
property uchar blue
end_header
-21.864 -20.981 -43.199 71 74 79
-21.417 -21.256 -43.199 68 71 76
-20.977 -21.542 -43.199 68 68 76
-20.545 -21.839 -43.199 66 66 74
-20.120 -22.147 -43.199 62 62 70
-19.702 -22.464 -43.199 62 62 70
-19.292 -22.792 -43.199 56 63 71
-18.891 -23.130 -43.199 54 61 69
-18.498 -23.477 -43.199 58 65 73
-18.113 -23.835 -43.199 54 61 69
-17.738 -24.201 -43.199 54 64 66
-17.371 -24.576 -43.199 51 63 63
-17.014 -24.961 -43.199 52 64 64
-16.667 -25.354 -43.199 51 63 63
-16.329 -25.755 -43.199 53 61 63
-16.001 -26.165 -43.199 56 61 65
-15.683 -26.583 -43.199 56 61 65
-15.376 -27.008 -43.199 59 64 68
-15.079 -27.440 -43.199 61 69 72
-14.793 -27.880 -43.199 62 70 73
-14.518 -28.327 -43.199 65 73 76
-14.273 -28.791 -43.153 66 74 77
-14.046 -29.264 -43.090 69 79 81
-13.833 -29.743 -43.024 71 81 83
-13.633 -30.226 -42.955 72 82 84
-13.446 -30.714 -42.887 72 82 84
-13.269 -31.205 -42.821 74 82 84
-13.103 -31.698 -42.760 76 81 84
-12.949 -32.195 -42.699 78 83 86
-12.808 -32.695 -42.637 78 83 86
-12.681 -33.198 -42.573 82 87 90
-12.564 -33.702 -42.512 82 87 90
-12.459 -34.209 -42.454 78 83 86
-12.366 -34.717 -42.397 79 84 87
-12.287 -35.226 -42.337 78 84 82
-12.221 -35.737 -42.278 80 86 84
-12.166 -36.248 -42.220 79 85 83
-12.123 -36.760 -42.165 82 88 86
-12.091 -37.272 -42.112 81 87 85
-12.074 -37.784 -42.056 82 88 86
-12.071 -38.296 -41.996 83 89 87
-12.079 -38.807 -41.939 83 89 87
-12.098 -39.317 -41.886 82 88 86
-12.128 -39.826 -41.835 82 88 86
-12.172 -40.333 -41.781 81 87 85
-12.230 -40.839 -41.725 82 88 86
-12.301 -41.342 -41.667 82 88 86
-12.379 -41.843 -41.618 82 88 86
-12.468 -42.341 -41.575 82 88 86
-12.569 -42.837 -41.530 84 90 88
-12.684 -43.329 -41.483 84 90 88
-12.810 -43.818 -41.435 84 90 88
-12.946 -44.304 -41.392 83 89 87
-13.093 -44.786 -41.353 84 90 88
-13.251 -45.264 -41.312 85 91 89
-13.423 -45.737 -41.268 84 90 88
-13.607 -46.204 -41.222 83 89 87
-13.801 -46.667 -41.178 83 89 87
-14.005 -47.125 -41.138 82 88 86
-14.219 -47.578 -41.098 84 90 88
-14.445 -48.024 -41.057 89 95 93
-14.682 -48.464 -41.014 89 95 93
-14.929 -48.899 -40.974 90 96 92
-15.184 -49.327 -40.938 90 96 92
-15.449 -49.750 -40.905 93 99 95
-15.724 -50.165 -40.869 92 98 94
-16.012 -50.571 -40.828 89 98 95
-16.309 -50.970 -40.786 89 98 95
-16.616 -51.361 -40.746 88 97 94
-16.931 -51.744 -40.706 88 97 94
-17.256 -52.119 -40.665 92 98 96
-17.591 -52.484 -40.620 91 97 95
-17.936 -52.838 -40.569 88 94 92
-18.289 -53.185 -40.522 89 95 93
-18.648 -53.523 -40.477 92 97 93
-19.016 -53.852 -40.432 93 98 94
-19.392 -54.170 -40.384 93 98 94
-19.777 -54.477 -40.330 95 100 96
-20.169 -54.775 -40.279 93 99 95
-20.565 -55.065 -40.234 95 101 97
-20.967 -55.345 -40.191 97 103 99
-21.376 -55.615 -40.146 98 104 100
-21.792 -55.873 -40.099 99 104 100
-22.214 -56.121 -40.052 99 104 100
-22.640 -56.359 -40.008 101 106 102
-23.071 -56.587 -39.965 101 106 102
-23.507 -56.804 -39.923 103 109 105
-23.949 -57.009 -39.877 105 111 107
-24.395 -57.203 -39.831 103 109 105
-24.845 -57.386 -39.789 103 109 105
-25.298 -57.560 -39.748 104 111 104
-25.754 -57.723 -39.710 104 111 104
-26.214 -57.875 -39.672 104 111 104
-26.677 -58.017 -39.638 103 110 103
-27.141 -58.150 -39.610 101 107 103
-27.608 -58.274 -39.587 100 106 102
-28.077 -58.388 -39.567 101 107 103
-28.549 -58.489 -39.545 101 107 103
-29.023 -58.578 -39.521 101 107 103
-29.499 -58.657 -39.501 101 107 103
-29.975 -58.725 -39.483 102 108 104
-30.453 -58.782 -39.467 100 106 102
-30.933 -58.827 -39.449 100 106 104
-31.413 -58.858 -39.428 99 105 103
-31.893 -58.878 -39.407 97 103 101
-32.374 -58.887 -39.388 97 103 101
-32.854 -58.885 -39.373 98 104 100
-33.334 -58.872 -39.357 98 104 100
-33.814 -58.844 -39.336 97 103 99
-34.292 -58.803 -39.311 99 105 101
-34.768 -58.750 -39.285 98 103 99
-35.243 -58.685 -39.260 99 104 100
-35.716 -58.607 -39.231 99 104 100
-36.185 -58.515 -39.196 100 105 101
-36.652 -58.409 -39.156 97 101 102
-37.114 -58.289 -39.111 92 96 97
-37.573 -58.157 -39.063 91 95 96
-38.028 -58.014 -39.017 90 96 94
-38.480 -57.863 -38.975 86 92 92
-38.927 -57.701 -38.936 85 91 91
-39.371 -57.530 -38.899 80 86 86
-39.810 -57.350 -38.866 77 83 83
-40.244 -57.159 -38.831 74 79 82
-40.674 -56.957 -38.797 70 75 78
-41.098 -56.747 -38.766 65 70 73
-41.517 -56.528 -38.738 66 71 74
-41.932 -56.300 -38.715 66 71 74
-42.341 -56.064 -38.694 66 71 74
-42.744 -55.818 -38.675 70 75 78
-43.143 -55.564 -38.660 76 81 84
-43.535 -55.302 -38.648 82 87 90
-43.921 -55.031 -38.637 95 100 103
-44.301 -54.751 -38.628 99 104 107
-44.674 -54.463 -38.622 101 106 109
-45.043 -54.170 -38.624 104 109 112
-45.408 -53.870 -38.636 106 111 114
-45.766 -53.564 -38.652 105 110 113
-46.118 -53.249 -38.672 101 106 109
-46.461 -52.925 -38.687 97 101 102
-46.798 -52.593 -38.706 88 92 93
-47.125 -52.252 -38.722 84 88 89
-47.446 -51.904 -38.743 125 129 130
-47.757 -51.547 -38.761 67 73 73
-48.053 -51.179 -38.763 50 59 58
-48.338 -50.801 -38.759 38 47 46
-48.611 -50.414 -38.748 34 43 42
-48.873 -50.021 -38.733 42 47 50
-49.124 -49.620 -38.716 38 43 46
-49.365 -49.214 -38.700 42 47 50
-49.595 -48.801 -38.680 42 47 50
-49.811 -48.381 -38.653 44 48 49
-50.014 -47.955 -38.618 45 49 50
-50.206 -47.524 -38.583 50 54 55
-50.386 -47.088 -38.545 53 57 58
-50.555 -46.649 -38.509 59 63 64
-50.712 -46.206 -38.469 68 72 73
-50.856 -45.759 -38.425 74 78 79
-50.985 -45.307 -38.373 73 77 78
-51.103 -44.853 -38.320 70 74 75
-51.210 -44.397 -38.268 68 72 71
-51.304 -43.939 -38.213 72 76 75
-51.388 -43.479 -38.161 81 85 84
-51.461 -43.018 -38.112 83 87 86
-51.525 -42.557 -38.066 92 96 95
-51.581 -42.095 -38.028 108 112 111
-51.630 -41.633 -37.999 138 142 141
-51.672 -41.171 -37.979 162 162 162
-51.704 -40.708 -37.962 169 167 168
-51.719 -40.244 -37.935 169 168 166
-51.726 -39.781 -37.913 167 166 162
-51.719 -39.317 -37.886 180 180 172
-51.699 -38.855 -37.857 185 185 175
-51.667 -38.393 -37.823 178 178 170
-51.624 -37.933 -37.794 185 184 179
-51.575 -37.473 -37.773 176 179 172
-51.517 -37.015 -37.758 177 180 171
-51.449 -36.559 -37.744 183 186 177
-51.367 -36.105 -37.727 183 186 177
-51.272 -35.654 -37.704 185 188 177
-51.160 -35.207 -37.669 187 189 178
-51.040 -34.762 -37.639 194 196 185
-50.898 -34.324 -37.585 197 199 188
-50.744 -33.890 -37.528 187 186 181
-50.581 -33.461 -37.472 186 185 181
-50.408 -33.036 -37.418 172 171 167
-50.220 -32.619 -37.354 174 173 169
-50.034 -32.201 -37.317 174 174 166
-49.839 -31.788 -37.281 170 170 160
-49.631 -31.382 -37.239 171 171 161
-49.421 -30.978 -37.215 175 175 165
-49.194 -30.583 -37.173 132 133 127
-48.964 -30.191 -37.148 121 122 116
-48.711 -29.813 -37.086 159 160 154
-48.433 -29.452 -36.988 105 106 100
-48.152 -29.096 -36.900 157 158 152
-47.881 -28.734 -36.861 141 142 136
-47.599 -28.382 -36.813 166 167 161
-47.312 -28.034 -36.776 137 138 132
-47.009 -27.701 -36.716 169 169 161
-46.691 -27.382 -36.635 165 165 157
-46.365 -27.072 -36.552 167 167 159
-46.035 -26.768 -36.478 168 168 160
-45.708 -26.463 -36.435 164 159 153
-45.373 -26.169 -36.386 163 156 146
-44.991 -25.927 -36.210 135 127 116
-44.247 -26.109 -34.880 103 92 86
-43.514 -26.328 -33.529 98 93 89
-43.123 -26.158 -33.292 93 90 85
-42.758 -25.963 -33.153 95 90 86
-42.181 -26.075 -32.247 98 93 89
-40.225 -28.286 -26.052 102 92 82
-37.544 -31.912 -16.533 113 101 89
-36.539 -33.169 -13.156 132 120 108
-36.364 -33.122 -13.055 137 125 113
-36.200 -33.057 -13.009 139 125 114
-36.037 -32.994 -12.968 142 126 113
-35.872 -32.936 -12.926 150 134 121
-35.707 -32.882 -12.884 155 139 126
-35.543 -32.826 -12.856 156 137 120
-35.381 -32.768 -12.842 159 138 119
-35.219 -32.709 -12.840 163 138 118
-35.056 -32.651 -12.844 170 143 124
-34.892 -32.599 -12.844 159 136 118
-34.725 -32.556 -12.833 156 135 116
-34.557 -32.520 -12.816 161 140 121
-34.387 -32.490 -12.795 161 143 123
-34.217 -32.464 -12.774 155 136 119
-34.047 -32.442 -12.753 154 137 121
-33.876 -32.427 -12.727 152 136 121
-33.706 -32.413 -12.709 163 147 134
-33.535 -32.402 -12.692 137 120 112
-33.365 -32.394 -12.678 133 118 111
-33.194 -32.396 -12.651 98 87 83
-33.023 -32.437 -12.551 73 63 62
-32.854 -18.682 -43.543 106 108 103
-32.348 -18.688 -43.543 101 103 100
-31.842 -18.707 -43.543 98 100 99
-31.336 -18.738 -43.543 91 92 94
-30.832 -18.781 -43.543 91 92 96
-30.328 -18.837 -43.543 82 83 88
-29.826 -18.905 -43.543 77 78 83
-29.326 -18.986 -43.543 74 75 80
-28.828 -19.078 -43.543 70 73 78
-28.333 -19.183 -43.543 65 70 74
-27.840 -19.300 -43.543 62 67 71
-27.351 -19.429 -43.543 60 65 69
-26.864 -19.570 -43.543 57 64 70
-26.381 -19.723 -43.543 50 59 64
-25.902 -19.888 -43.543 54 63 68
-25.428 -20.065 -43.543 50 59 64
-24.957 -20.253 -43.543 54 66 66
-24.492 -20.452 -43.543 48 60 60
-24.031 -20.663 -43.543 50 62 62
-23.576 -20.885 -43.543 52 64 64
-23.127 -21.119 -43.543 57 68 70
-22.683 -21.363 -43.543 55 66 68
-22.246 -21.618 -43.543 61 72 74
-21.814 -21.883 -43.543 60 71 73
-21.390 -22.160 -43.543 62 72 73
-20.972 -22.446 -43.543 69 79 80
-20.562 -22.743 -43.543 71 81 82
-20.159 -23.049 -43.543 74 84 85
-19.763 -23.366 -43.543 75 85 84
-19.376 -23.692 -43.543 77 87 86
-18.996 -24.028 -43.543 78 88 87
-18.625 -24.372 -43.543 79 89 88
-18.263 -24.726 -43.543 80 89 88
-17.909 -25.088 -43.543 80 89 86
-17.564 -25.459 -43.543 80 89 86
-17.229 -25.839 -43.543 81 90 87
-16.903 -26.226 -43.543 83 89 87
-16.586 -26.622 -43.543 83 89 85
-16.280 -27.025 -43.543 83 89 85
-15.983 -27.435 -43.543 83 89 85
-15.697 -27.853 -43.543 82 88 84
-15.420 -28.277 -43.543 86 92 88
-15.155 -28.709 -43.543 87 93 89
-14.900 -29.146 -43.543 85 91 87
-14.655 -29.590 -43.543 84 93 88
-14.428 -30.042 -43.529 84 93 88
-14.234 -30.511 -43.459 84 93 88
-14.054 -30.984 -43.388 84 93 88
-13.883 -31.459 -43.321 89 91 88
-13.723 -31.938 -43.256 88 89 84
-13.576 -32.419 -43.190 89 90 85
-13.441 -32.904 -43.123 86 87 82
-13.319 -33.391 -43.055 88 90 85
-13.207 -33.880 -42.991 87 89 84
-13.107 -34.371 -42.930 88 90 85
-13.018 -34.863 -42.870 85 87 82
-12.942 -35.356 -42.808 86 91 85
-12.878 -35.851 -42.748 85 90 83
-12.825 -36.346 -42.689 86 91 84
-12.784 -36.842 -42.633 87 92 85
-12.753 -37.338 -42.578 88 93 89
-12.736 -37.833 -42.522 89 94 90
-12.732 -38.329 -42.463 87 92 88
-12.740 -38.824 -42.406 88 93 89
-12.757 -39.317 -42.355 86 92 88
-12.786 -39.810 -42.305 86 92 88
-12.827 -40.301 -42.254 86 92 88
-12.882 -40.791 -42.200 86 92 88
-12.949 -41.278 -42.144 90 95 91
-13.025 -41.763 -42.096 89 94 90
-13.110 -42.246 -42.054 86 91 87
-13.206 -42.727 -42.012 87 92 88
-13.316 -43.204 -41.967 90 95 91
-13.437 -43.678 -41.921 89 94 90
-13.569 -44.148 -41.878 87 92 88
-13.711 -44.615 -41.838 91 96 92
-13.866 -45.077 -41.795 86 92 88
-14.032 -45.535 -41.749 86 92 88
-14.211 -45.988 -41.701 87 93 89
-14.400 -46.436 -41.654 88 94 90
-14.600 -46.879 -41.608 89 95 91
-14.809 -47.316 -41.563 90 96 92
-15.030 -47.748 -41.517 91 97 93
-15.261 -48.173 -41.470 91 97 93
-15.503 -48.592 -41.423 95 100 94
-15.752 -49.006 -41.382 96 101 95
-16.009 -49.414 -41.345 96 101 95
-16.276 -49.815 -41.308 97 102 96
-16.554 -50.209 -41.268 94 100 96
-16.841 -50.595 -41.226 94 100 96
-17.138 -50.973 -41.185 95 101 97
-17.443 -51.344 -41.145 96 102 98
-17.757 -51.707 -41.104 98 104 100
-18.081 -52.061 -41.061 99 105 101
-18.414 -52.405 -41.014 97 103 99
-18.754 -52.742 -40.969 100 106 102
-19.101 -53.071 -40.927 100 107 100
-19.455 -53.391 -40.887 103 110 103
-19.818 -53.701 -40.843 102 109 102
-20.189 -53.999 -40.794 104 111 104
-20.567 -54.289 -40.747 100 107 100
-20.950 -54.571 -40.703 102 109 102
-21.339 -54.843 -40.662 106 113 106
-21.735 -55.105 -40.619 107 114 107
-22.137 -55.356 -40.574 109 114 108
-22.545 -55.598 -40.531 112 117 111
-22.957 -55.831 -40.491 114 119 113
-23.374 -56.053 -40.451 114 119 113
-23.796 -56.264 -40.411 116 123 116
-24.224 -56.463 -40.365 115 122 115
-24.656 -56.651 -40.319 116 123 116
-25.092 -56.828 -40.275 116 123 116
-25.531 -56.996 -40.233 117 124 117
-25.974 -57.154 -40.193 115 122 115
-26.420 -57.301 -40.154 116 123 116
-26.868 -57.438 -40.119 116 123 116
-27.318 -57.567 -40.090 116 122 118
-27.771 -57.687 -40.068 116 122 118
-28.225 -57.798 -40.048 113 119 115
-28.682 -57.897 -40.028 109 115 111
-29.141 -57.984 -40.006 113 119 117
-29.602 -58.061 -39.987 111 117 115
-30.064 -58.129 -39.974 106 112 110
-30.527 -58.188 -39.965 103 109 107
-30.991 -58.236 -39.956 103 109 109
-31.456 -58.269 -39.941 97 103 103
-31.922 -58.289 -39.922 97 103 103
-32.388 -58.297 -39.902 89 95 95
-32.854 -58.296 -39.887 87 93 91
-33.320 -58.282 -39.868 85 91 89
-33.785 -58.255 -39.846 84 90 88
-34.248 -58.215 -39.821 79 85 83
-34.710 -58.163 -39.794 83 87 86
-35.171 -58.101 -39.770 83 87 86
-35.630 -58.028 -39.747 85 89 88
-36.086 -57.941 -39.717 86 90 89
-36.539 -57.839 -39.680 81 83 82
-36.988 -57.726 -39.641 88 90 89
-37.435 -57.603 -39.605 101 105 104
-37.878 -57.470 -39.569 103 109 105
-38.317 -57.326 -39.535 105 109 110
-38.753 -57.173 -39.504 102 106 109
-39.185 -57.012 -39.477 99 103 106
-39.614 -56.840 -39.451 100 104 107
-40.036 -56.657 -39.422 101 106 109
-40.454 -56.463 -39.392 96 101 104
-40.868 -56.260 -39.365 93 98 101
-41.277 -56.050 -39.346 92 97 100
-41.681 -55.831 -39.326 81 86 89
-42.079 -55.602 -39.307 70 75 78
-42.471 -55.363 -39.287 67 72 75
-42.859 -55.117 -39.274 54 59 62
-43.242 -54.864 -39.268 40 44 47
-43.620 -54.604 -39.265 40 44 47
-43.991 -54.333 -39.260 37 41 44
-44.354 -54.052 -39.253 38 42 45
-44.710 -53.764 -39.246 38 44 44
-45.062 -53.470 -39.250 36 42 42
-45.408 -53.168 -39.257 31 37 37
-45.745 -52.857 -39.260 31 37 37
-46.074 -52.537 -39.261 36 41 44
-46.394 -52.208 -39.260 34 39 42
-46.706 -51.872 -39.261 39 44 47
-47.012 -51.529 -39.265 62 67 70
-47.307 -51.178 -39.264 58 67 66
-47.589 -50.816 -39.251 67 76 75
-47.863 -50.448 -39.240 74 83 82
-48.126 -50.073 -39.226 78 87 86
-48.380 -49.691 -39.210 83 89 89
-48.623 -49.303 -39.194 88 94 94
-48.859 -48.910 -39.183 64 70 70
-49.085 -48.512 -39.171 94 100 100
-49.297 -48.106 -39.148 125 127 124
-49.496 -47.694 -39.120 144 144 142
-49.683 -47.277 -39.087 178 178 176
-49.858 -46.854 -39.049 180 180 178
-50.021 -46.428 -39.010 179 179 177
-50.173 -45.998 -38.969 183 183 181
-50.314 -45.564 -38.926 181 181 179
-50.441 -45.127 -38.878 185 185 183
-50.557 -44.687 -38.829 194 195 190
-50.660 -44.245 -38.776 196 197 192
-50.749 -43.800 -38.714 196 197 192
-50.829 -43.354 -38.658 186 187 182
-50.900 -42.907 -38.608 200 201 196
-50.961 -42.459 -38.559 196 195 191
-51.013 -42.011 -38.516 205 204 200
-51.059 -41.563 -38.482 205 204 200
-51.098 -41.114 -38.459 203 203 195
-51.128 -40.665 -38.441 199 199 189
-51.147 -40.216 -38.421 203 203 193
-51.157 -39.767 -38.407 199 199 189
-51.157 -39.317 -38.395 193 193 183
-51.147 -38.868 -38.385 195 195 185
-51.126 -38.420 -38.376 199 199 191
-51.098 -37.972 -38.373 197 196 191
-51.059 -37.524 -38.373 205 202 197
-51.013 -37.078 -38.380 201 198 193
-50.959 -36.632 -38.395 200 197 192
-50.892 -36.187 -38.405 204 201 196
-50.815 -35.745 -38.416 209 206 199
-50.723 -35.305 -38.420 198 195 188
-50.619 -34.868 -38.418 202 199 192
-50.500 -34.434 -38.408 214 211 204
-50.360 -34.007 -38.374 194 194 186
-50.203 -33.586 -38.326 182 183 175
-50.039 -33.169 -38.282 173 174 166
-49.852 -32.761 -38.209 175 176 168
-49.662 -32.355 -38.153 171 171 161
-49.464 -31.954 -38.100 171 171 161
-49.256 -31.560 -38.045 168 168 158
-49.045 -31.168 -38.005 176 176 166
-48.819 -30.784 -37.952 174 175 169
-48.592 -30.402 -37.919 128 129 123
-48.363 -30.021 -37.907 165 166 160
-48.123 -29.648 -37.888 153 154 148
-47.868 -29.286 -37.851 119 120 114
-47.607 -28.927 -37.824 145 146 140
-47.337 -28.576 -37.795 163 164 158
-47.060 -28.231 -37.770 145 146 140
-46.776 -27.892 -37.747 119 118 113
-46.483 -27.561 -37.723 149 148 143
-46.176 -27.243 -37.682 122 121 116
-45.857 -26.937 -37.625 134 133 128
-45.539 -26.632 -37.593 161 160 156
-45.223 -26.326 -37.588 162 162 152
-44.897 -26.030 -37.579 150 150 138
-44.559 -25.748 -37.550 147 147 139
-44.219 -25.469 -37.539 142 144 139
-43.870 -25.202 -37.518 130 132 127
-43.513 -24.946 -37.489 130 131 126
-43.147 -24.703 -37.452 134 133 129
-42.775 -24.470 -37.412 126 125 120
-42.406 -24.233 -37.405 125 122 117
-42.029 -24.010 -37.387 117 114 109
-41.646 -23.797 -37.368 119 116 111
-41.258 -23.595 -37.346 118 115 110
-40.858 -23.417 -37.287 117 114 109
-40.452 -23.253 -37.220 110 107 102
-39.912 -23.395 -36.438 99 96 91
-38.739 -25.111 -31.938 85 84 79
-37.704 -26.745 -27.740 86 83 76
-37.233 -27.079 -26.687 99 90 83
-36.227 -29.108 -21.730 126 113 104
-34.935 -32.459 -13.818 143 127 112
-34.709 -32.615 -13.347 159 141 127
-34.543 -32.574 -13.343 156 138 124
-34.376 -32.539 -13.332 156 138 124
-34.208 -32.509 -13.320 144 123 106
-34.040 -32.485 -13.305 148 127 110
-33.870 -32.472 -13.274 154 131 115
-33.700 -32.460 -13.249 152 129 111
-33.530 -32.456 -13.217 157 135 114
-33.360 -32.460 -13.177 160 138 117
-33.191 -32.466 -13.140 156 135 116
-33.022 -32.484 -13.086 159 138 119
-32.854 -19.430 -43.875 64 70 68
-32.366 -19.436 -43.875 68 74 72
-31.878 -19.454 -43.875 72 78 78
-31.391 -19.484 -43.875 83 88 91
-30.905 -19.526 -43.875 90 98 101
-30.420 -19.579 -43.875 95 103 106
-29.936 -19.645 -43.875 96 104 107
-29.454 -19.723 -43.875 97 105 108
-28.974 -19.812 -43.875 112 121 126
-28.497 -19.913 -43.875 103 112 117
-28.022 -20.026 -43.875 98 107 112
-27.550 -20.150 -43.875 88 97 102
-27.081 -20.286 -43.875 84 94 95
-26.616 -20.434 -43.875 75 85 86
-26.154 -20.592 -43.875 83 93 94
-25.697 -20.762 -43.875 79 89 90
-25.244 -20.944 -43.875 82 92 91
-24.795 -21.136 -43.875 81 90 89
-24.351 -21.339 -43.875 83 92 91
-23.913 -21.553 -43.875 83 92 91
-23.479 -21.778 -43.875 85 94 91
-23.052 -22.014 -43.875 84 90 86
-22.630 -22.259 -43.875 86 92 88
-22.214 -22.515 -43.875 84 90 86
-21.805 -22.782 -43.875 86 91 87
-21.403 -23.058 -43.875 89 93 92
-21.007 -23.344 -43.875 91 95 94
-20.619 -23.639 -43.875 88 92 91
-20.238 -23.944 -43.875 88 93 89
-19.864 -24.258 -43.875 84 90 86
-19.499 -24.582 -43.875 85 91 87
-19.141 -24.914 -43.875 86 92 88
-18.792 -25.255 -43.875 86 92 88
-18.451 -25.604 -43.875 87 93 89
-18.119 -25.962 -43.875 86 92 88
-17.795 -26.327 -43.875 87 93 89
-17.481 -26.701 -43.875 85 91 89
-17.176 -27.082 -43.875 85 91 89
-16.880 -27.470 -43.875 87 93 91
-16.595 -27.866 -43.875 87 93 91
-16.318 -28.268 -43.875 91 96 90
-16.052 -28.678 -43.875 89 94 88
-15.796 -29.093 -43.875 92 97 91
-15.550 -29.515 -43.875 93 98 92
-15.315 -29.942 -43.875 88 94 90
-15.090 -30.376 -43.875 88 94 92
-14.876 -30.814 -43.875 88 94 92
-14.688 -31.265 -43.836 88 94 92
-14.524 -31.725 -43.766 89 94 90
-14.370 -32.187 -43.699 92 94 91
-14.229 -32.653 -43.630 88 90 87
-14.100 -33.122 -43.561 91 93 90
-13.983 -33.593 -43.491 86 91 87
-13.875 -34.065 -43.424 86 91 87
-13.778 -34.539 -43.363 87 92 88
-13.692 -35.014 -43.302 88 93 89
-13.619 -35.491 -43.240 92 97 93
-13.556 -35.969 -43.180 90 95 91
-13.505 -36.447 -43.121 92 97 93
-13.465 -36.926 -43.065 92 97 93
-13.435 -37.405 -43.013 93 98 92
-13.417 -37.883 -42.959 95 100 94
-13.411 -38.362 -42.904 89 94 88
-13.417 -38.840 -42.849 94 99 93
-13.433 -39.317 -42.800 90 97 90
-13.459 -39.793 -42.753 92 99 92
-13.497 -40.268 -42.705 93 100 93
-13.548 -40.741 -42.656 95 102 95
-13.611 -41.213 -42.603 99 104 98
-13.684 -41.682 -42.556 99 104 98
-13.765 -42.149 -42.516 98 103 97
-13.858 -42.613 -42.473 96 101 95
-13.963 -43.075 -42.429 100 105 99
-14.081 -43.533 -42.384 101 106 100
-14.208 -43.988 -42.341 99 104 98
-14.345 -44.440 -42.301 100 105 99
-14.494 -44.887 -42.259 102 109 102
-14.654 -45.330 -42.214 104 111 104
-14.827 -45.767 -42.165 107 114 107
-15.011 -46.200 -42.116 108 115 108
-15.204 -46.628 -42.068 109 116 109
-15.408 -47.051 -42.019 113 120 113
-15.623 -47.467 -41.969 118 125 118
-15.848 -47.877 -41.917 117 124 117
-16.084 -48.281 -41.865 122 127 120
-16.326 -48.681 -41.819 123 128 121
-16.576 -49.074 -41.779 125 130 123
-16.834 -49.462 -41.739 126 131 124
-17.103 -49.842 -41.698 129 134 128
-17.381 -50.215 -41.657 129 134 128
-17.667 -50.581 -41.616 132 137 131
-17.962 -50.940 -41.576 133 138 132
-18.264 -51.291 -41.537 132 139 132
-18.576 -51.634 -41.496 133 140 133
-18.897 -51.968 -41.452 134 141 134
-19.225 -52.294 -41.410 137 144 137
-19.559 -52.612 -41.371 132 142 133
-19.901 -52.922 -41.332 134 144 135
-20.250 -53.223 -41.292 133 143 134
-20.608 -53.514 -41.248 134 144 135
-20.972 -53.796 -41.205 134 141 133
-21.341 -54.070 -41.167 135 142 134
-21.716 -54.335 -41.130 133 140 132
-22.097 -54.591 -41.093 134 141 133
-22.485 -54.836 -41.053 135 140 133
-22.878 -55.072 -41.015 137 142 135
-23.275 -55.299 -40.981 141 146 139
-23.677 -55.517 -40.949 139 144 137
-24.085 -55.724 -40.913 139 145 141
-24.498 -55.919 -40.873 139 145 143
-24.915 -56.103 -40.832 133 139 137
-25.336 -56.278 -40.794 128 134 132
-25.761 -56.443 -40.758 118 124 122
-26.189 -56.597 -40.723 109 115 115
-26.620 -56.741 -40.686 98 104 104
-27.054 -56.874 -40.651 90 96 96
-27.491 -56.999 -40.622 78 84 84
-27.928 -57.117 -40.603 72 77 80
-28.369 -57.225 -40.584 66 71 74
-28.812 -57.320 -40.562 68 73 76
-29.257 -57.403 -40.535 69 75 75
-29.704 -57.475 -40.510 65 71 71
-30.151 -57.539 -40.491 71 77 77
-30.600 -57.594 -40.480 81 87 87
-31.050 -57.638 -40.466 87 92 95
-31.501 -57.668 -40.444 88 93 96
-31.952 -57.684 -40.418 85 90 93
-32.403 -57.689 -40.392 87 92 95
-32.854 -57.686 -40.371 87 93 93
-33.305 -57.671 -40.349 90 96 96
-33.755 -57.643 -40.324 93 99 99
-34.203 -57.604 -40.297 91 97 97
-34.650 -57.554 -40.270 100 104 105
-35.096 -57.495 -40.248 96 100 101
-35.540 -57.424 -40.225 101 105 106
-35.982 -57.343 -40.201 105 109 110
-36.421 -57.250 -40.176 148 147 142
-36.858 -57.147 -40.152 180 179 174
-37.292 -57.033 -40.128 110 112 111
-37.722 -56.906 -40.097 72 78 78
-38.148 -56.767 -40.064 50 58 61
-38.569 -56.617 -40.026 38 46 49
-38.986 -56.455 -39.987 34 42 45
-39.400 -56.286 -39.953 35 43 46
-39.809 -56.107 -39.920 32 37 40
-40.213 -55.918 -39.887 35 40 43
-40.612 -55.720 -39.855 36 41 44
-41.007 -55.514 -39.827 42 47 50
-41.397 -55.299 -39.801 42 48 48
-41.781 -55.075 -39.776 45 51 51
-42.159 -54.842 -39.750 51 57 57
-42.532 -54.600 -39.727 50 56 56
-42.900 -54.352 -39.711 52 61 60
-43.263 -54.097 -39.700 59 68 67
-43.621 -53.834 -39.691 57 66 65
-43.972 -53.564 -39.685 53 62 61
-44.318 -53.286 -39.683 53 59 57
-44.658 -53.001 -39.686 65 71 69
-44.991 -52.709 -39.689 76 82 80
-45.318 -52.409 -39.696 85 91 89
-45.638 -52.101 -39.703 88 92 91
-45.948 -51.784 -39.705 84 86 85
-46.251 -51.459 -39.706 91 93 92
-46.544 -51.126 -39.704 103 105 104
-46.828 -50.785 -39.698 109 111 108
-47.100 -50.435 -39.684 128 130 127
-47.364 -50.079 -39.671 139 141 138
-47.619 -49.716 -39.657 140 142 139
-47.864 -49.346 -39.641 141 143 138
-48.099 -48.971 -39.624 134 135 130
-48.327 -48.592 -39.613 104 105 100
-48.545 -48.206 -39.599 130 131 126
-48.749 -47.813 -39.573 190 189 184
-48.942 -47.415 -39.545 185 185 177
-49.123 -47.012 -39.513 205 205 197
-49.293 -46.604 -39.479 201 201 193
-49.453 -46.193 -39.444 212 212 204
-49.602 -45.778 -39.406 212 212 204
-49.739 -45.359 -39.365 210 210 202
-49.863 -44.936 -39.319 204 204 196
-49.977 -44.511 -39.274 206 206 198
-50.079 -44.084 -39.226 202 202 192
-50.169 -43.654 -39.174 194 194 184
-50.249 -43.223 -39.124 202 202 192
-50.319 -42.791 -39.077 205 202 195
-50.382 -42.359 -39.037 214 209 203
-50.438 -41.926 -39.005 214 209 203
-50.485 -41.492 -38.978 225 220 214
-50.526 -41.058 -38.962 205 205 197
-50.560 -40.623 -38.953 182 181 176
-50.584 -40.188 -38.947 150 149 145
-50.601 -39.753 -38.949 123 122 120
-50.609 -39.317 -38.956 77 79 74
-50.609 -38.881 -38.967 62 64 59
-50.599 -38.446 -38.981 53 55 52
-50.580 -38.010 -38.999 37 39 38
-50.554 -37.574 -39.027 33 33 33
-50.520 -37.138 -39.058 34 34 36
-50.473 -36.704 -39.087 33 33 35
-50.412 -36.271 -39.106 29 29 31
-50.337 -35.840 -39.118 25 26 28
-50.250 -35.411 -39.126 23 24 26
-50.153 -34.984 -39.136 35 36 38
-50.045 -34.560 -39.145 50 51 53
-49.919 -34.141 -39.135 43 45 42
-49.780 -33.726 -39.119 41 46 42
-49.630 -33.315 -39.099 79 84 80
-49.458 -32.913 -39.051 142 147 143
-49.274 -32.516 -38.995 158 159 154
-49.084 -32.123 -38.951 160 159 155
-48.891 -31.732 -38.922 162 161 157
-48.691 -31.345 -38.899 162 161 157
-48.486 -30.962 -38.885 158 159 153
-48.272 -30.583 -38.873 156 157 151
-48.043 -30.214 -38.848 153 154 148
-47.807 -29.849 -38.825 155 156 150
-47.559 -29.492 -38.795 155 156 150
-47.305 -29.140 -38.772 161 162 156
-47.045 -28.793 -38.755 161 162 156
-46.777 -28.452 -38.737 162 163 157
-46.499 -28.119 -38.718 157 156 152
-46.222 -27.786 -38.722 160 159 155
-45.930 -27.466 -38.708 153 152 148
-45.618 -27.165 -38.653 152 151 147
-45.303 -26.869 -38.610 150 146 145
-44.988 -26.573 -38.592 145 144 139
-44.672 -26.279 -38.592 133 134 126
-44.350 -25.991 -38.597 135 137 132
-44.020 -25.711 -38.601 114 116 111
-43.681 -25.444 -38.595 112 113 108
-43.331 -25.192 -38.567 129 128 124
-42.969 -24.955 -38.521 135 131 128
-42.602 -24.729 -38.473 127 128 123
-42.230 -24.511 -38.427 126 128 123
-41.853 -24.304 -38.377 121 123 118
-41.469 -24.111 -38.314 115 117 112
-41.077 -23.934 -38.236 112 114 111
-40.683 -23.764 -38.167 116 118 115
-40.291 -23.594 -38.121 119 121 118
-39.894 -23.436 -38.072 119 121 118
-39.494 -23.288 -38.021 111 113 110
-39.090 -23.153 -37.965 115 117 114
-38.689 -23.009 -37.954 108 110 107
-38.282 -22.886 -37.917 112 112 112
-37.871 -22.779 -37.866 113 114 109
-37.455 -22.692 -37.790 107 106 102
-37.033 -22.634 -37.672 104 100 97
-36.602 -22.627 -37.459 99 94 91
-36.136 -22.820 -36.801 106 98 95
-35.143 -26.126 -28.884 103 94 89
-34.372 -29.087 -21.857 113 102 96
-34.032 -29.769 -20.191 124 111 103
-33.789 -29.823 -20.006 159 145 134
-33.526 -30.205 -19.078 153 139 126
-33.248 -31.293 -16.531 130 116 103
-33.034 -32.010 -14.860 150 136 123
-32.854 -20.183 -44.194 41 54 47
-32.385 -20.189 -44.194 47 59 55
-31.915 -20.206 -44.194 50 62 60
-31.447 -20.235 -44.194 52 64 62
-30.979 -20.275 -44.194 54 63 60
-30.512 -20.327 -44.194 62 68 66
-30.047 -20.390 -44.194 57 63 61
-29.583 -20.465 -44.194 69 75 73
-29.121 -20.551 -44.194 125 131 129
-28.662 -20.648 -44.194 118 124 124
-28.205 -20.757 -44.194 122 131 130
-27.751 -20.876 -44.194 122 131 128
-27.300 -21.007 -44.194 122 131 128
-26.852 -21.149 -44.194 129 138 137
-26.408 -21.302 -44.194 128 137 136
-25.968 -21.465 -44.194 110 119 118
-25.532 -21.640 -44.194 106 116 115
-25.100 -21.825 -44.194 119 127 129
-24.673 -22.020 -44.194 119 124 127
-24.251 -22.226 -44.194 105 108 113
-23.834 -22.442 -44.194 99 101 98
-23.423 -22.669 -44.194 113 115 110
-23.017 -22.905 -44.194 119 121 116
-22.617 -23.152 -44.194 125 127 122
-22.224 -23.408 -44.194 133 134 129
-21.837 -23.673 -44.194 141 142 137
-21.456 -23.949 -44.194 145 146 141
-21.082 -24.233 -44.194 138 139 134
-20.716 -24.526 -44.194 125 130 126
-20.356 -24.829 -44.194 105 111 107
-20.005 -25.140 -44.194 89 95 91
-19.660 -25.459 -44.194 91 97 93
-19.324 -25.787 -44.194 90 96 94
-18.996 -26.124 -44.194 90 99 96
-18.677 -26.468 -44.194 89 98 95
-18.366 -26.819 -44.194 89 98 95
-18.063 -27.179 -44.194 92 98 96
-17.770 -27.545 -44.194 93 97 96
-17.486 -27.919 -44.194 91 95 94
-17.210 -28.300 -44.194 92 96 95
-16.945 -28.687 -44.194 91 95 94
-16.689 -29.081 -44.194 89 93 94
-16.442 -29.480 -44.194 87 91 92
-16.206 -29.886 -44.194 83 87 88
-15.979 -30.298 -44.194 87 93 93
-15.763 -30.714 -44.194 82 90 92
-15.557 -31.136 -44.194 81 90 89
-15.362 -31.563 -44.194 83 92 89
-15.177 -31.995 -44.194 81 90 87
-15.007 -32.433 -44.182 91 97 95
-14.871 -32.883 -44.112 95 100 96
-14.746 -33.335 -44.041 89 91 86
-14.633 -33.790 -43.970 89 95 91
-14.529 -34.246 -43.903 89 95 91
-14.435 -34.704 -43.842 92 98 94
-14.351 -35.162 -43.783 96 102 98
-14.278 -35.622 -43.726 92 96 95
-14.215 -36.083 -43.672 90 94 93
-14.163 -36.545 -43.619 89 93 92
-14.121 -37.007 -43.569 88 92 91
-14.090 -37.469 -43.519 87 91 90
-14.072 -37.932 -43.469 95 99 98
-14.065 -38.394 -43.415 95 99 98
-14.071 -38.856 -43.361 92 96 95
-14.087 -39.317 -43.308 93 97 96
-14.114 -39.777 -43.257 99 103 102
-14.152 -40.236 -43.205 98 102 101
-14.203 -40.693 -43.151 105 109 108
-14.264 -41.148 -43.097 112 114 113
-14.335 -41.601 -43.048 111 113 112
-14.415 -42.053 -43.004 116 118 117
-14.506 -42.501 -42.959 118 120 119
-14.608 -42.947 -42.914 121 122 117
-14.721 -43.389 -42.868 121 122 117
-14.843 -43.829 -42.826 127 128 123
-14.975 -44.265 -42.786 126 127 122
-15.119 -44.697 -42.743 129 131 130
-15.274 -45.125 -42.698 130 132 131
-15.441 -45.548 -42.650 131 133 132
-15.619 -45.966 -42.599 136 138 137
-15.807 -46.379 -42.547 132 134 131
-16.004 -46.786 -42.496 133 135 130
-16.213 -47.188 -42.443 138 140 135
-16.432 -47.584 -42.387 137 139 134
-16.660 -47.973 -42.330 139 142 135
-16.896 -48.358 -42.280 136 139 132
-17.139 -48.737 -42.234 136 139 132
-17.389 -49.110 -42.192 142 145 138
-17.648 -49.478 -42.152 140 143 134
-17.916 -49.838 -42.111 141 144 135
-18.193 -50.191 -42.069 137 140 131
-18.477 -50.538 -42.029 139 142 135
-18.769 -50.877 -41.991 133 138 131
-19.069 -51.209 -41.953 132 137 130
-19.377 -51.532 -41.913 132 137 130
-19.693 -51.848 -41.873 132 137 130
-20.015 -52.156 -41.835 125 132 125
-20.346 -52.456 -41.795 121 128 121
-20.682 -52.747 -41.757 110 116 112
-21.027 -53.028 -41.715 104 110 106
-21.377 -53.302 -41.676 93 97 98
-21.733 -53.568 -41.642 81 85 88
-22.094 -53.826 -41.608 74 78 81
-22.462 -54.074 -41.574 64 68 71
-22.835 -54.312 -41.538 62 66 69
-23.214 -54.541 -41.503 67 71 74
-23.597 -54.762 -41.473 65 69 72
-23.984 -54.975 -41.445 74 78 81
-24.377 -55.177 -41.414 70 79 78
-24.775 -55.367 -41.379 72 81 80
-25.178 -55.546 -41.342 76 85 84
-25.585 -55.717 -41.307 79 88 87
-25.995 -55.878 -41.275 81 89 92
-26.408 -56.029 -41.243 79 86 92
-26.825 -56.168 -41.207 81 88 94
-27.245 -56.297 -41.172 80 87 93
-27.667 -56.418 -41.141 82 90 93
-28.091 -56.530 -41.117 82 90 93
-28.517 -56.633 -41.094 82 90 93
-28.946 -56.723 -41.069 83 91 94
-29.376 -56.802 -41.039 84 92 94
-29.809 -56.870 -41.009 84 92 94
-30.242 -56.928 -40.981 84 92 94
-30.676 -56.978 -40.959 89 97 99
-31.111 -57.017 -40.938 92 95 100
-31.547 -57.045 -40.914 91 92 97
-31.983 -57.060 -40.887 91 92 94
-32.419 -57.065 -40.861 94 95 97
-32.854 -57.061 -40.838 87 88 90
-33.289 -57.048 -40.818 96 97 99
-33.724 -57.022 -40.795 103 104 106
-34.157 -56.984 -40.767 95 97 96
-34.590 -56.937 -40.742 84 90 90
-35.021 -56.881 -40.724 80 85 88
-35.450 -56.814 -40.704 75 80 83
-35.877 -56.737 -40.683 127 132 135
-36.301 -56.647 -40.658 96 98 95
-36.723 -56.546 -40.629 71 73 70
-37.142 -56.434 -40.599 48 52 51
-37.557 -56.309 -40.564 51 55 56
-37.968 -56.174 -40.528 60 69 66
-38.375 -56.028 -40.487 55 64 61
-38.778 -55.872 -40.448 59 68 65
-39.177 -55.709 -40.415 69 78 75
-39.572 -55.536 -40.382 81 87 85
-39.963 -55.354 -40.350 89 95 91
-40.349 -55.163 -40.318 101 108 101
-40.730 -54.963 -40.288 111 118 110
-41.107 -54.757 -40.267 119 129 121
-41.480 -54.543 -40.247 121 131 123
-41.847 -54.320 -40.228 132 139 132
-42.209 -54.089 -40.212 140 145 139
-42.566 -53.852 -40.202 135 140 136
-42.919 -53.608 -40.199 134 139 135
-43.267 -53.357 -40.199 128 133 129
-43.608 -53.097 -40.200 107 112 108
-43.942 -52.828 -40.196 96 98 93
-44.269 -52.550 -40.191 102 104 99
-44.589 -52.264 -40.185 133 135 130
-44.903 -51.973 -40.186 166 168 163
-45.210 -51.673 -40.187 176 173 166
-45.509 -51.366 -40.184 193 190 181
-45.800 -51.051 -40.181 198 195 186
-46.081 -50.727 -40.172 191 188 179
-46.354 -50.396 -40.162 197 194 185
-46.617 -50.058 -40.148 193 190 183
-46.872 -49.714 -40.133 192 189 182
-47.119 -49.363 -40.121 196 193 186
-47.356 -49.007 -40.106 201 198 189
-47.582 -48.644 -40.086 196 192 183
-47.802 -48.277 -40.073 154 150 141
-48.012 -47.904 -40.057 108 104 95
-48.207 -47.524 -40.029 195 192 183
-48.393 -47.139 -40.000 201 201 191
-48.569 -46.750 -39.967 218 218 208
-48.734 -46.357 -39.936 218 218 208
-48.891 -45.960 -39.905 216 211 205
-49.036 -45.559 -39.871 211 204 198
-49.171 -45.156 -39.838 207 200 194
-49.294 -44.748 -39.799 195 188 182
-49.407 -44.338 -39.759 217 210 204
-49.509 -43.926 -39.719 179 171 168
-49.599 -43.512 -39.673 148 140 137
-49.678 -43.095 -39.627 138 130 127
-49.748 -42.678 -39.584 145 143 131
-49.809 -42.259 -39.543 155 153 141
-49.862 -41.840 -39.509 162 159 150
-49.909 -41.421 -39.485 166 163 156
-49.950 -41.001 -39.472 135 135 127
-49.983 -40.581 -39.464 118 119 113
-50.006 -40.160 -39.457 107 107 105
-50.019 -39.739 -39.452 88 89 91
-50.025 -39.317 -39.454 96 98 95
-50.022 -38.896 -39.459 92 94 89
-50.008 -38.475 -39.463 97 99 96
-49.985 -38.054 -39.470 85 87 84
-49.954 -37.633 -39.482 82 87 81
-49.914 -37.213 -39.498 80 85 81
-49.863 -36.794 -39.511 84 88 87
-49.801 -36.377 -39.524 75 79 80
-49.728 -35.961 -39.536 77 86 85
-49.645 -35.547 -39.547 73 82 79
-49.552 -35.135 -39.558 66 76 68
-49.448 -34.725 -39.567 57 66 63
-49.333 -34.319 -39.573 39 47 49
-49.208 -33.915 -39.581 24 29 32
-49.078 -33.512 -39.600 24 29 32
-48.935 -33.114 -39.612 22 27 30
-48.780 -32.721 -39.615 21 27 27
-48.611 -32.333 -39.610 17 23 23
-48.429 -31.951 -39.594 28 34 34
-48.235 -31.575 -39.571 35 41 41
-48.031 -31.205 -39.546 45 46 48
-47.821 -30.838 -39.529 59 61 60
-47.607 -30.475 -39.525 77 79 76
-47.382 -30.118 -39.514 97 99 96
-47.149 -29.766 -39.505 123 125 120
-46.907 -29.420 -39.496 111 113 110
-46.653 -29.083 -39.476 121 123 120
-46.398 -28.748 -39.476 125 127 124
-46.135 -28.418 -39.477 122 124 121
-45.866 -28.094 -39.484 108 110 109
-45.587 -27.777 -39.486 85 87 86
-45.295 -27.473 -39.470 36 38 37
-44.997 -27.174 -39.459 37 41 42
-44.691 -26.885 -39.443 31 35 36
-44.376 -26.605 -39.421 28 34 34
-44.052 -26.336 -39.389 25 31 31
-43.725 -26.071 -39.370 18 26 28
-43.392 -25.814 -39.352 20 28 30
-43.055 -25.564 -39.339 23 32 31
-42.708 -25.327 -39.313 20 29 26
-42.356 -25.097 -39.290 23 28 24
-42.000 -24.875 -39.271 23 27 26
-41.639 -24.661 -39.253 27 32 35
-41.271 -24.460 -39.224 22 31 36
-40.896 -24.272 -39.186 29 36 44
-40.518 -24.092 -39.151 32 36 45
-40.139 -23.915 -39.133 39 44 48
-39.754 -23.753 -39.102 59 65 65
-39.363 -23.603 -39.062 94 98 99
-38.969 -23.467 -39.015 105 109 108
-38.571 -23.341 -38.964 113 115 112
-38.168 -23.233 -38.895 112 112 112
-37.761 -23.143 -38.805 115 116 118
-37.352 -23.064 -38.714 108 110 109
-36.944 -22.992 -38.631 108 110 109
-36.536 -22.922 -38.566 108 108 108
-36.128 -22.857 -38.517 112 112 112
-35.720 -22.802 -38.467 123 123 123
-35.309 -22.770 -38.386 122 123 118
-34.898 -22.746 -38.310 121 117 114
-34.489 -22.716 -38.274 114 110 107
-34.082 -22.674 -38.290 108 104 101
-33.675 -22.607 -38.390 104 103 101
-33.267 -22.522 -38.559 103 103 103
-32.854 -20.941 -44.501 81 92 86
-32.403 -20.947 -44.501 80 91 85
-31.953 -20.964 -44.501 83 94 90
-31.502 -20.991 -44.501 85 95 94
-31.053 -21.030 -44.501 87 93 91
-30.605 -21.080 -44.501 91 95 94
-30.158 -21.140 -44.501 98 102 101
-29.713 -21.212 -44.501 112 116 115
-29.269 -21.295 -44.501 114 116 113
-28.828 -21.388 -44.501 120 120 118
-28.389 -21.492 -44.501 123 125 122
-27.953 -21.607 -44.501 119 124 120
-27.520 -21.733 -44.501 120 126 124
-27.090 -21.869 -44.501 109 115 113
-26.664 -22.016 -44.501 103 109 107
-26.241 -22.173 -44.501 100 106 104
-25.822 -22.340 -44.501 122 128 124
-25.408 -22.518 -44.501 117 122 118
-24.998 -22.706 -44.501 129 131 130
-24.592 -22.904 -44.501 118 118 120
-24.192 -23.111 -44.501 135 137 132
-23.797 -23.329 -44.501 153 156 149
-23.407 -23.556 -44.501 143 146 139
-23.023 -23.792 -44.501 146 149 142
-22.645 -24.038 -44.501 150 151 145
-22.273 -24.294 -44.501 149 150 144
-21.908 -24.558 -44.501 155 156 150
-21.549 -24.831 -44.501 153 154 148
-21.197 -25.113 -44.501 157 160 153
-20.852 -25.403 -44.501 160 165 158
-20.514 -25.702 -44.501 150 155 148
-20.183 -26.009 -44.501 129 134 127
-19.861 -26.324 -44.501 124 129 125
-19.546 -26.646 -44.501 102 106 105
-19.239 -26.977 -44.501 100 104 103
-18.940 -27.315 -44.501 104 108 107
-18.650 -27.660 -44.501 112 117 111
-18.368 -28.012 -44.501 121 126 120
-18.095 -28.371 -44.501 128 133 127
-17.830 -28.736 -44.501 135 140 134
-17.575 -29.108 -44.501 147 152 146
-17.329 -29.486 -44.501 142 147 143
-17.093 -29.870 -44.501 141 146 142
-16.866 -30.260 -44.501 141 146 142
-16.648 -30.655 -44.501 136 141 137
-16.441 -31.055 -44.501 146 148 147
-16.243 -31.461 -44.501 147 149 146
-16.055 -31.871 -44.501 148 150 145
-15.877 -32.285 -44.501 154 161 154
-15.710 -32.704 -44.501 156 161 155
-15.553 -33.127 -44.501 158 161 154
-15.406 -33.553 -44.501 159 160 152
-15.279 -33.986 -44.475 156 159 152
-15.177 -34.425 -44.414 159 162 155
-15.084 -34.866 -44.359 158 161 154
-15.000 -35.308 -44.305 156 159 152
-14.928 -35.751 -44.253 157 157 155
-14.866 -36.196 -44.201 159 159 157
-14.814 -36.641 -44.152 164 164 162
-14.772 -37.087 -44.105 167 167 165
-14.744 -37.534 -44.052 166 168 165
-14.726 -37.980 -43.999 167 169 166
-14.721 -38.426 -43.943 164 166 163
-14.727 -38.872 -43.886 179 181 178
-14.743 -39.317 -43.832 167 169 166
-14.771 -39.761 -43.773 166 168 165
-14.812 -40.204 -43.713 164 166 163
-14.865 -40.644 -43.646 158 160 157
-14.930 -41.083 -43.578 154 156 153
-15.002 -41.519 -43.519 152 154 151
-15.081 -41.954 -43.467 159 161 158
-15.171 -42.386 -43.418 158 160 157
-15.269 -42.815 -43.371 158 159 154
-15.378 -43.242 -43.327 156 157 151
-15.496 -43.665 -43.284 155 156 150
-15.623 -44.086 -43.243 153 154 148
-15.761 -44.502 -43.201 149 152 145
-15.910 -44.915 -43.158 143 145 140
-16.070 -45.323 -43.110 136 138 133
-16.242 -45.725 -43.058 143 145 140
-16.424 -46.123 -43.004 121 124 117
-16.615 -46.516 -42.950 136 139 132
-16.815 -46.903 -42.897 138 141 134
-17.025 -47.285 -42.844 136 139 132
-17.244 -47.661 -42.792 135 137 132
-17.469 -48.033 -42.747 114 116 113
-17.702 -48.399 -42.704 115 117 114
-17.943 -48.760 -42.664 119 121 118
-18.192 -49.114 -42.624 107 109 108
-18.450 -49.462 -42.583 72 73 75
-18.717 -49.802 -42.541 67 68 72
-18.991 -50.136 -42.499 66 67 72
-19.273 -50.463 -42.459 63 66 71
-19.563 -50.782 -42.417 69 72 77
-19.862 -51.093 -42.372 73 76 81
-20.167 -51.396 -42.329 80 83 88
-20.479 -51.693 -42.288 75 80 86
-20.798 -51.980 -42.244 71 78 84
-21.125 -52.259 -42.199 73 80 88
-21.458 -52.529 -42.152 72 79 89
-21.797 -52.791 -42.108 72 79 85
-22.140 -53.046 -42.069 74 81 87
-22.489 -53.293 -42.031 72 79 85
-22.844 -53.531 -41.994 76 83 89
-23.204 -53.759 -41.954 77 84 90
-23.569 -53.980 -41.917 81 88 94
-23.939 -54.192 -41.884 83 90 96
-24.312 -54.396 -41.853 84 91 97
-24.691 -54.590 -41.823 84 92 95
-25.074 -54.774 -41.789 81 89 92
-25.462 -54.947 -41.753 83 91 94
-25.853 -55.111 -41.719 85 93 96
-26.248 -55.267 -41.687 87 95 98
-26.646 -55.413 -41.656 89 97 100
-27.047 -55.548 -41.622 88 96 99
-27.451 -55.673 -41.590 84 92 95
-27.858 -55.789 -41.558 83 91 94
-28.266 -55.896 -41.531 83 91 94
-28.677 -55.994 -41.505 84 92 95
-29.090 -56.082 -41.480 86 94 97
-29.504 -56.158 -41.452 84 92 94
-29.921 -56.224 -41.422 83 91 93
-30.338 -56.279 -41.393 83 91 93
-30.756 -56.326 -41.369 83 91 93
-31.175 -56.364 -41.345 84 89 92
-31.595 -56.389 -41.319 85 89 90
-32.015 -56.405 -41.293 89 93 96
-32.435 -56.412 -41.272 79 83 86
-32.854 -56.410 -41.255 48 53 57
-33.274 -56.398 -41.235 44 49 53
-33.692 -56.372 -41.210 49 54 57
-34.109 -56.334 -41.179 49 55 55
-34.526 -56.286 -41.149 54 60 60
-34.940 -56.230 -41.124 55 61 61
-35.353 -56.164 -41.097 60 66 66
-35.764 -56.086 -41.068 67 73 73
-36.172 -55.998 -41.037 65 74 71
-36.578 -55.899 -41.006 71 80 77
-36.980 -55.790 -40.972 85 94 91
-37.380 -55.671 -40.939 113 122 119
-37.776 -55.542 -40.905 131 137 133
-38.168 -55.403 -40.870 131 137 133
-38.557 -55.254 -40.834 129 135 131
-38.941 -55.097 -40.799 129 135 131
-39.321 -54.931 -40.765 131 136 132
-39.698 -54.756 -40.735 134 139 133
-40.070 -54.573 -40.707 137 142 135
-40.437 -54.382 -40.679 141 146 139
-40.801 -54.185 -40.660 132 142 133
-41.161 -53.981 -40.647 131 138 131
-41.516 -53.769 -40.638 126 131 125
-41.867 -53.549 -40.628 100 102 97
-42.211 -53.320 -40.618 91 93 88
-42.550 -53.084 -40.611 104 106 101
-42.884 -52.841 -40.607 127 129 124
-43.213 -52.591 -40.607 154 156 151
-43.535 -52.332 -40.607 160 161 155
-43.851 -52.066 -40.604 171 172 166
-44.160 -51.791 -40.602 178 179 173
-44.463 -51.510 -40.602 182 183 177
-44.759 -51.222 -40.606 172 173 167
-45.048 -50.927 -40.606 180 179 174
-45.329 -50.624 -40.604 189 188 183
-45.601 -50.312 -40.597 162 161 156
-45.864 -49.994 -40.588 131 132 124
-46.117 -49.667 -40.572 137 138 130
-46.361 -49.334 -40.553 147 148 140
-46.596 -48.995 -40.533 165 166 158
-46.823 -48.651 -40.513 156 157 149
-47.041 -48.301 -40.492 186 186 178
-47.251 -47.947 -40.476 159 159 151
-47.452 -47.587 -40.456 125 125 117
-47.642 -47.221 -40.430 169 162 156
-47.823 -46.852 -40.408 183 172 168
-47.995 -46.479 -40.385 194 183 179
-48.158 -46.101 -40.362 205 194 190
-48.312 -45.720 -40.339 177 172 168
-48.456 -45.336 -40.318 178 175 170
-48.590 -44.948 -40.291 59 56 51
-48.707 -44.554 -40.249 93 90 85
-48.813 -44.158 -40.202 61 58 53
-48.908 -43.760 -40.151 78 75 70
-48.991 -43.359 -40.098 90 87 82
-49.068 -42.958 -40.050 117 114 109
-49.136 -42.556 -40.010 159 159 149
-49.198 -42.153 -39.976 175 175 163
-49.251 -41.749 -39.946 187 187 177
-49.297 -41.345 -39.926 199 199 191
-49.339 -40.941 -39.917 193 191 178
-49.372 -40.536 -39.914 197 195 182
-49.396 -40.130 -39.909 165 162 153
-49.408 -39.724 -39.903 154 153 148
-49.413 -39.317 -39.903 164 167 160
-49.410 -38.911 -39.908 169 172 165
-49.395 -38.505 -39.909 162 165 158
-49.371 -38.099 -39.909 140 143 136
-49.335 -37.694 -39.907 125 128 121
-49.289 -37.290 -39.904 101 104 97
-49.234 -36.888 -39.904 83 85 80
-49.172 -36.486 -39.910 94 96 93
-49.100 -36.086 -39.916 86 91 87
-49.016 -35.688 -39.918 84 89 83
-48.924 -35.292 -39.922 83 88 81
-48.822 -34.898 -39.926 83 88 84
-48.711 -34.507 -39.933 83 89 87
-48.590 -34.119 -39.935 80 86 84
-48.458 -33.734 -39.939 78 84 82
-48.317 -33.352 -39.941 78 84 82
-48.167 -32.975 -39.942 78 84 82
-48.004 -32.602 -39.936 78 84 82
-47.831 -32.234 -39.925 81 87 85
-47.648 -31.871 -39.911 79 85 83
-47.456 -31.513 -39.896 72 77 80
-47.257 -31.158 -39.889 53 58 61
-47.053 -30.807 -39.892 38 44 44
-46.844 -30.458 -39.903 34 40 38
-46.626 -30.115 -39.913 50 56 54
-46.398 -29.778 -39.921 34 43 40
-46.160 -29.449 -39.919 36 45 42
-45.915 -29.125 -39.923 42 51 48
-45.661 -28.807 -39.925 72 81 80
-45.397 -28.498 -39.918 67 76 75
-45.123 -28.197 -39.901 63 72 71
-44.838 -27.908 -39.871 49 58 57
-44.550 -27.622 -39.855 54 60 60
-44.255 -27.342 -39.841 52 58 58
-43.955 -27.070 -39.829 55 61 61
-43.646 -26.807 -39.809 54 60 60
-43.331 -26.551 -39.792 52 60 62
-43.010 -26.304 -39.773 51 60 59
-42.684 -26.063 -39.758 54 63 60
-42.351 -25.833 -39.737 43 52 49
-42.013 -25.611 -39.716 37 46 43
-41.671 -25.393 -39.705 43 52 49
-41.327 -25.181 -39.708 80 86 84
-40.978 -24.977 -39.706 160 166 166
-40.622 -24.785 -39.698 221 225 226
-40.262 -24.601 -39.693 197 199 198
-39.900 -24.421 -39.699 116 118 117
-39.533 -24.250 -39.707 40 42 41
-39.163 -24.087 -39.717 55 61 61
-38.788 -23.934 -39.724 65 70 66
-38.409 -23.792 -39.726 85 88 81
-38.025 -23.665 -39.714 73 75 70
-37.637 -23.552 -39.690 70 70 68
-37.245 -23.453 -39.655 69 69 67
-36.850 -23.366 -39.612 77 77 75
-36.453 -23.293 -39.561 92 92 90
-36.055 -23.228 -39.513 105 106 101
-35.655 -23.176 -39.456 116 117 112
-35.254 -23.142 -39.379 116 117 112
-34.853 -23.113 -39.315 116 117 112
-34.454 -23.075 -39.301 117 117 115
-34.054 -23.052 -39.272 113 114 109
-33.655 -23.015 -39.304 110 112 107
-33.256 -22.946 -39.441 108 113 107
-32.854 -21.705 -44.795 93 100 93
-32.422 -21.710 -44.795 90 97 90
-31.990 -21.726 -44.795 86 92 88
-31.559 -21.753 -44.795 107 113 111
-31.128 -21.790 -44.795 116 121 117
-30.698 -21.837 -44.795 118 120 117
-30.270 -21.895 -44.795 122 124 121
-29.843 -21.964 -44.795 122 124 121
-29.418 -22.043 -44.795 131 132 126
-28.995 -22.133 -44.795 131 130 125
-28.575 -22.233 -44.795 165 166 161
-28.157 -22.343 -44.795 88 90 87
-27.742 -22.463 -44.795 87 89 84
-27.330 -22.594 -44.795 122 124 119
-26.921 -22.734 -44.795 139 141 136
-26.516 -22.885 -44.795 132 134 129
-26.114 -23.045 -44.795 131 132 124
-25.717 -23.216 -44.795 140 140 130
-25.324 -23.396 -44.795 124 124 116
-24.935 -23.585 -44.795 140 139 134
-24.552 -23.784 -44.795 142 143 137
-24.173 -23.993 -44.795 142 145 138
-23.800 -24.211 -44.795 95 98 91
-23.432 -24.437 -44.795 141 144 137
-23.069 -24.673 -44.795 140 141 135
-22.713 -24.918 -44.795 148 149 143
-22.362 -25.171 -44.795 151 152 146
-22.018 -25.433 -44.795 149 150 144
-21.681 -25.703 -44.795 150 153 144
-21.350 -25.981 -44.795 154 157 148
-21.026 -26.267 -44.795 146 149 140
-20.710 -26.561 -44.795 147 150 141
-20.400 -26.863 -44.795 149 151 146
-20.098 -27.173 -44.795 144 146 141
-19.804 -27.489 -44.795 143 145 140
-19.518 -27.813 -44.795 147 149 144
-19.240 -28.144 -44.795 154 157 150
-18.969 -28.482 -44.795 163 166 157
-18.708 -28.826 -44.795 167 170 161
-18.455 -29.176 -44.795 175 178 169
-18.210 -29.532 -44.795 171 174 165
-17.974 -29.895 -44.795 165 168 159
-17.747 -30.263 -44.795 168 171 162
-17.530 -30.636 -44.795 173 176 167
-17.321 -31.015 -44.795 175 174 170
-17.122 -31.399 -44.795 172 171 166
-16.933 -31.787 -44.795 162 162 154
-16.753 -32.180 -44.795 163 163 153
-16.582 -32.577 -44.795 160 163 154
-16.422 -32.979 -44.795 164 166 155
-16.271 -33.384 -44.795 172 172 160
-16.131 -33.793 -44.795 174 174 162
-16.000 -34.205 -44.795 185 182 173
-15.880 -34.620 -44.795 180 177 168
-15.770 -35.038 -44.795 183 180 171
-15.678 -35.460 -44.772 184 181 172
-15.608 -35.887 -44.719 180 180 172
-15.549 -36.315 -44.666 185 185 177
-15.500 -36.743 -44.614 183 183 175
-15.461 -37.172 -44.562 187 187 179
-15.436 -37.602 -44.503 190 191 183
-15.421 -38.031 -44.445 184 185 177
-15.418 -38.461 -44.383 183 184 176
-15.425 -38.889 -44.322 184 185 177
-15.442 -39.317 -44.264 188 189 183
-15.469 -39.744 -44.204 183 184 178
-15.509 -40.169 -44.142 187 188 182
-15.561 -40.593 -44.072 182 183 177
-15.624 -41.014 -44.001 173 174 168
-15.695 -41.434 -43.937 184 185 179
-15.773 -41.851 -43.881 184 185 179
-15.858 -42.266 -43.834 186 187 181
-15.951 -42.680 -43.790 188 189 183
-16.054 -43.090 -43.748 186 187 179
-16.167 -43.497 -43.706 192 193 185
-16.290 -43.901 -43.665 183 184 176
-16.422 -44.302 -43.625 179 181 170
-16.563 -44.699 -43.586 179 181 168
-16.715 -45.092 -43.543 178 180 167
-16.877 -45.480 -43.498 167 169 156
-17.049 -45.864 -43.453 139 140 132
-17.231 -46.243 -43.405 150 151 143
-17.422 -46.616 -43.356 169 170 162
-17.622 -46.985 -43.309 168 169 161
-17.830 -47.348 -43.262 170 171 166
-18.044 -47.707 -43.227 168 169 164
-18.266 -48.061 -43.189 167 168 163
-18.496 -48.409 -43.153 175 176 171
-18.736 -48.751 -43.113 164 165 159
-18.986 -49.085 -43.069 161 162 156
-19.244 -49.411 -43.022 156 157 152
-19.510 -49.731 -42.974 153 153 151
-19.783 -50.044 -42.926 151 153 150
-20.065 -50.349 -42.875 150 152 149
-20.355 -50.646 -42.821 141 143 140
-20.651 -50.936 -42.768 132 134 131
-20.953 -51.218 -42.718 119 125 121
-21.262 -51.493 -42.667 108 114 110
-21.578 -51.759 -42.614 99 105 103
-21.901 -52.015 -42.556 91 97 97
-22.229 -52.265 -42.502 89 97 99
-22.560 -52.508 -42.455 79 87 89
-22.897 -52.743 -42.412 82 90 92
-23.239 -52.970 -42.369 83 91 93
-23.586 -53.189 -42.325 89 97 100
-23.937 -53.399 -42.284 87 95 98
-24.293 -53.602 -42.248 89 97 100
-24.652 -53.797 -42.215 90 98 101
-25.015 -53.983 -42.184 88 93 97
-25.383 -54.160 -42.150 87 92 96
-25.755 -54.327 -42.117 87 92 96
-26.130 -54.486 -42.085 84 89 93
-26.509 -54.637 -42.057 84 92 95
-26.890 -54.778 -42.029 88 96 98
-27.275 -54.909 -41.998 86 94 96
-27.663 -55.030 -41.968 87 95 97
-28.054 -55.142 -41.938 85 90 94
-28.446 -55.246 -41.911 83 88 92
-28.841 -55.340 -41.886 86 91 95
-29.237 -55.426 -41.864 83 88 92
-29.635 -55.501 -41.840 80 85 88
-30.035 -55.565 -41.815 82 87 90
-30.436 -55.620 -41.790 79 84 87
-30.838 -55.666 -41.767 46 51 54
-31.240 -55.703 -41.745 26 32 30
