ply
format ascii 1.0
element vertex 1603
property float x
property float y
property float z
property uchar red
property uchar green
property uchar blue
end_header
-4.241 -9.054 1.897 63 64 56
-4.239 -9.002 1.897 41 42 34
-4.232 -8.951 1.897 31 34 27
-4.223 -8.901 1.898 34 36 33
-4.222 -8.849 1.897 37 39 36
-4.219 -8.798 1.897 53 56 47
-4.248 -8.740 1.895 72 73 42
-4.272 -8.681 1.893 89 89 53
-4.270 -8.626 1.893 71 67 30
-4.284 -8.567 1.891 101 97 50
-4.315 -8.501 1.889 97 96 42
-4.345 -8.432 1.887 61 61 7
-4.359 -8.367 1.885 85 90 36
-4.363 -8.304 1.884 116 123 71
-4.363 -8.241 1.883 76 85 32
-4.349 -8.183 1.882 86 95 42
-4.332 -8.126 1.882 74 81 27
-4.320 -8.066 1.881 114 120 56
-4.304 -8.007 1.880 94 103 40
-4.292 -7.945 1.879 109 118 55
-4.271 -7.887 1.879 106 114 54
-4.244 -7.833 1.878 106 113 61
-4.214 -7.780 1.878 92 95 42
-4.198 -7.717 1.877 117 122 58
-4.164 -7.665 1.877 78 84 38
-4.121 -7.622 1.877 78 83 53
-4.076 -7.579 1.878 48 55 14
-4.038 -7.531 1.878 71 78 36
-3.992 -7.490 1.878 65 73 34
-3.949 -7.447 1.878 66 75 48
-3.902 -7.408 1.879 57 60 39
-3.856 -7.369 1.879 53 58 26
-3.810 -7.330 1.879 65 72 30
-3.762 -7.292 1.879 56 62 24
-3.715 -7.255 1.879 58 65 24
-3.667 -7.218 1.879 80 87 46
-3.618 -7.183 1.879 63 68 28
-3.570 -7.146 1.879 80 83 38
-3.523 -7.108 1.879 98 98 48
-3.473 -7.073 1.879 82 84 34
-3.424 -7.037 1.879 83 87 37
-3.372 -7.007 1.879 90 93 46
-3.314 -6.987 1.879 63 66 23
-3.256 -6.968 1.880 80 86 40
-3.200 -6.945 1.880 92 100 51
-3.140 -6.932 1.880 73 80 38
-3.080 -6.922 1.881 83 95 59
-3.019 -6.916 1.882 44 56 20
-2.956 -6.915 1.883 48 59 16
-2.886 -6.940 1.885 66 74 25
-2.806 -7.007 1.890 105 111 65
-2.677 -7.267 1.904 51 52 18
-2.619 -7.301 1.906 85 87 66
-2.575 -7.282 1.906 112 113 99
-2.532 -7.258 1.905 64 64 56
-2.492 -7.208 1.903 82 86 51
-2.456 -7.125 1.899 97 103 55
-2.413 -7.059 1.896 101 102 58
-2.365 -7.018 1.894 145 146 88
-2.315 -6.980 1.893 86 93 41
-2.263 -6.955 1.892 127 135 88
-2.210 -6.909 1.890 125 130 76
-2.154 -5.926 1.788 41 52 20
-2.076 -5.968 1.791 36 46 19
-1.999 -5.998 1.793 43 55 33
-1.925 -6.052 1.796 39 51 29
-1.864 -6.207 1.806 25 35 27
-1.801 -6.294 1.811 23 33 25
-1.742 -6.377 1.816 29 40 32
-1.685 -6.449 1.820 28 38 30
-1.626 -6.498 1.822 21 32 18
-1.567 -6.540 1.824 25 35 24
-1.507 -6.573 1.825 26 36 27
-1.450 -6.612 1.827 30 41 25
-1.400 -6.668 1.830 37 48 32
-1.350 -6.720 1.832 23 34 20
-1.299 -6.767 1.834 26 37 23
-1.251 -6.815 1.836 31 41 30
-1.206 -6.867 1.838 32 42 17
-1.163 -6.920 1.840 57 67 43
-1.114 -6.957 1.841 27 36 19
-1.064 -6.989 1.841 43 52 31
-1.018 -7.031 1.842 43 56 28
-0.979 -7.081 1.844 29 41 21
-0.936 -7.124 1.845 30 40 31
-0.894 -7.166 1.846 25 33 22
-0.850 -7.204 1.846 32 44 24
-0.821 -7.263 1.848 39 51 29
-0.799 -7.329 1.851 49 61 39
-0.803 -7.424 1.856 41 53 31
-0.801 -7.507 1.860 51 59 46
-0.780 -7.563 1.862 61 66 59
-0.852 -7.720 1.873 74 76 63
-1.071 -8.018 1.897 98 98 72
-1.195 -8.197 1.911 96 97 66
-1.300 -8.343 1.923 98 98 74
-1.343 -8.420 1.928 83 82 64
-1.349 -8.461 1.930 103 102 82
-1.348 -8.494 1.932 80 75 53
-1.348 -8.527 1.933 108 102 78
-1.348 -8.558 1.934 105 99 75
-1.084 -8.773 1.925 107 101 75
-1.065 -8.796 1.925 96 92 63
-1.055 -8.823 1.925 86 81 61
-1.044 -8.849 1.924 129 127 104
-1.036 -8.876 1.924 110 108 83
-1.037 -8.905 1.925 95 91 66
-1.052 -8.937 1.926 173 170 151
-1.072 -8.968 1.928 122 120 97
-1.055 -9.075 1.928 111 108 91
-1.028 -9.101 1.926 69 70 54
-1.013 -9.128 1.925 86 88 67
-1.007 -9.156 1.925 91 94 65
-1.001 -9.184 1.924 93 93 67
-1.004 -9.213 1.925 100 98 75
-1.015 -9.240 1.925 92 94 70
-1.029 -9.267 1.926 90 93 64
2.490 -11.787 1.650 125 69 54
2.396 -11.883 1.652 139 93 93
2.372 -12.022 1.649 96 18 18
-0.362 -10.354 1.859 203 172 144
-0.711 -10.172 1.884 229 209 182
-0.303 -10.529 1.849 145 145 107
2.035 -12.425 1.652 117 98 84
1.877 -12.465 1.658 137 141 152
-0.995 -10.157 1.900 114 55 57
-2.306 -10.177 1.932 125 120 82
-2.334 -10.190 1.931 138 132 98
-2.364 -10.208 1.930 119 118 72
-2.395 -10.228 1.928 95 94 50
-2.425 -10.235 1.927 105 103 64
-2.593 -10.741 1.892 111 111 61
-2.726 -11.040 1.871 87 96 39
-2.777 -11.041 1.870 122 132 79
-2.840 -11.071 1.867 64 72 21
-2.894 -11.074 1.865 67 75 34
-2.951 -11.079 1.864 58 64 26
-3.077 -11.239 1.851 174 176 136
-3.197 -11.361 1.840 94 104 54
-3.271 -11.375 1.837 23 38 0
-3.336 -11.366 1.836 65 80 25
-3.403 -11.361 1.834 69 84 15
-3.470 -11.351 1.832 77 92 23
-3.527 -11.323 1.832 72 85 29
-3.582 -11.292 1.832 52 62 25
-3.639 -11.264 1.831 76 86 52
-3.696 -11.235 1.830 58 65 47
-3.748 -11.199 1.830 55 63 52
-3.811 -11.175 1.829 49 58 31
-3.885 -11.163 1.826 70 79 36
-3.941 -11.127 1.826 73 86 42
-3.995 -11.089 1.825 79 95 50
-4.049 -11.051 1.824 78 88 53
-4.100 -11.008 1.824 80 90 38
-4.146 -10.961 1.824 84 96 50
-4.170 -10.894 1.826 83 94 60
-4.187 -10.824 1.828 36 48 26
-4.231 -10.776 1.827 34 44 35
-4.282 -10.734 1.826 35 47 37
-4.330 -10.688 1.826 44 59 38
-4.395 -10.653 1.823 30 41 7
-4.456 -10.614 1.821 91 104 51
-4.507 -10.566 1.820 69 84 29
-4.541 -10.508 1.820 67 81 28
-4.591 -10.459 1.819 62 74 24
-4.614 -10.394 1.820 107 118 75
-12.188 -13.901 1.273 91 97 85
-12.349 -13.675 1.269 52 56 57
-5.363 -10.485 1.772 100 111 95
-4.709 -10.141 1.821 60 73 47
-4.669 -10.056 1.825 85 96 64
-4.652 -9.981 1.828 58 68 33
-4.644 -9.911 1.829 76 83 41
-4.616 -9.837 1.833 105 113 66
-4.550 -9.756 1.838 54 61 20
-4.470 -9.676 1.844 75 82 51
-4.360 -9.595 1.853 70 74 47
-4.232 -9.517 1.862 68 71 52
-4.209 -9.461 1.864 55 56 48
-4.211 -9.410 1.864 57 59 48
-4.221 -9.360 1.864 69 70 54
-4.232 -9.309 1.863 79 78 58
-4.237 -9.258 1.863 124 123 103
-4.236 -9.207 1.864 38 36 21
-4.238 -9.156 1.863 43 40 31
-4.238 -9.105 1.863 37 33 30
-4.238 -9.054 1.863 50 49 45
-4.237 -9.002 1.863 53 55 44
-4.230 -8.952 1.863 38 41 34
-4.223 -8.901 1.863 35 37 36
-4.219 -8.850 1.863 31 32 34
-4.222 -8.797 1.862 26 28 23
-4.229 -8.743 1.861 56 57 49
-4.259 -8.683 1.859 59 59 33
-4.273 -8.625 1.857 84 82 33
-4.288 -8.566 1.855 105 104 48
-4.317 -8.500 1.852 129 129 69
-4.345 -8.432 1.849 124 127 60
-4.356 -8.368 1.847 96 98 48
-4.354 -8.307 1.845 89 91 51
-4.357 -8.244 1.844 120 128 77
-4.349 -8.183 1.843 87 96 53
-4.346 -8.120 1.841 89 101 39
-4.342 -8.055 1.839 95 107 35
-4.315 -8.001 1.839 67 74 22
-4.288 -7.948 1.839 62 68 20
-4.261 -7.893 1.839 81 85 48
-4.242 -7.834 1.838 87 93 47
-4.227 -7.771 1.837 89 96 18
-4.209 -7.709 1.835 81 88 20
-4.164 -7.665 1.836 81 86 46
-4.119 -7.623 1.837 62 68 40
-4.079 -7.576 1.837 53 59 11
-4.051 -7.520 1.836 112 119 65
-3.993 -7.490 1.837 54 62 15
-3.940 -7.456 1.838 46 51 28
-3.897 -7.413 1.838 48 55 37
-3.854 -7.371 1.838 58 69 29
-3.809 -7.330 1.838 91 99 48
-3.763 -7.292 1.839 66 71 31
-3.714 -7.255 1.839 75 79 42
-3.667 -7.218 1.839 72 80 41
-3.619 -7.182 1.839 47 56 13
-3.573 -7.142 1.839 89 96 45
-3.529 -7.099 1.838 110 115 51
-3.481 -7.062 1.838 91 92 32
-3.432 -7.025 1.837 87 87 37
-3.379 -6.994 1.837 82 88 40
-3.322 -6.972 1.838 85 93 42
-3.264 -6.951 1.838 79 88 35
-3.206 -6.933 1.839 66 76 26
-3.143 -6.926 1.840 50 58 19
-3.082 -6.917 1.841 69 80 48
-3.021 -6.908 1.842 70 80 45
-2.960 -6.904 1.843 68 77 30
-2.898 -6.906 1.845 83 92 37
-2.823 -6.952 1.849 97 104 52
-2.700 -7.184 1.866 99 100 58
-2.632 -7.248 1.871 140 136 99
-2.590 -7.214 1.870 113 108 70
-2.548 -7.177 1.868 138 138 102
-2.504 -7.144 1.866 139 137 99
-2.461 -7.088 1.863 154 152 113
-2.417 -7.030 1.860 98 104 60
-2.369 -6.978 1.857 89 97 50
-2.318 -6.939 1.854 120 128 79
-2.265 -6.904 1.852 99 106 52
-2.211 -6.866 1.850 105 110 46
-2.154 -5.952 1.737 28 40 16
-2.077 -5.988 1.740 26 38 18
-2.002 -6.046 1.745 25 33 18
-1.931 -6.124 1.751 26 35 18
-1.866 -6.226 1.759 28 37 20
-1.803 -6.308 1.765 23 31 16
-1.743 -6.384 1.770 21 31 22
-1.684 -6.446 1.774 23 34 28
-1.624 -6.492 1.777 24 34 23
-1.565 -6.531 1.779 23 33 22
-1.506 -6.566 1.781 25 35 24
-1.446 -6.597 1.782 31 42 26
-1.391 -6.639 1.784 34 45 29
-1.342 -6.696 1.788 32 43 27
-1.295 -6.753 1.791 20 31 17
-1.246 -6.802 1.793 26 36 25
-1.197 -6.845 1.795 34 44 20
-1.147 -6.883 1.796 38 48 23
-1.102 -6.931 1.798 37 46 25
-1.051 -6.965 1.799 42 52 28
-1.007 -7.010 1.800 35 48 20
-0.973 -7.070 1.803 40 52 30
-0.935 -7.122 1.806 31 39 24
-0.892 -7.163 1.807 34 42 21
-0.845 -7.196 1.807 38 49 19
-0.815 -7.254 1.809 48 58 31
-0.802 -7.332 1.814 46 55 36
-0.417 -6.930 1.768 65 73 62
-0.012 -6.546 1.723 65 70 63
0.079 -6.567 1.720 126 130 129
0.072 -6.700 1.728 55 59 58
-0.101 -6.999 1.756 46 54 39
-0.677 -7.679 1.829 41 47 19
-1.259 -8.304 1.899 86 88 64
-1.316 -8.397 1.907 65 64 44
-1.326 -8.442 1.910 74 72 51
-1.329 -8.479 1.912 86 81 59
-1.332 -8.515 1.914 91 86 64
-1.334 -8.548 1.916 72 67 45
-1.336 -8.579 1.918 98 93 71
-1.162 -8.773 1.913 168 162 140
-1.094 -8.777 1.908 126 121 92
-1.067 -8.797 1.906 145 140 111
-1.050 -8.821 1.905 79 73 51
-1.035 -8.846 1.905 92 84 61
-1.028 -8.874 1.905 98 91 63
-1.032 -8.904 1.906 68 60 37
-1.040 -8.934 1.907 129 125 98
-1.045 -8.964 1.908 123 122 91
-1.051 -8.992 1.909 103 103 67
-1.057 -9.021 1.909 104 103 72
-1.043 -9.047 1.908 90 86 59
-1.021 -9.072 1.907 125 124 103
-1.005 -9.100 1.906 65 68 49
-1.001 -9.128 1.905 110 112 91
-0.998 -9.156 1.905 87 87 63
-0.994 -9.185 1.905 78 74 49
-0.998 -9.213 1.905 66 58 35
-1.013 -9.240 1.906 86 82 57
-1.023 -9.268 1.907 107 107 71
-1.080 -9.289 1.911 107 106 75
-1.161 -9.303 1.918 107 105 84
1.240 -11.079 1.680 165 135 109
2.447 -11.914 1.560 122 31 36
2.293 -11.972 1.568 136 68 65
-0.577 -10.210 1.844 157 143 114
-0.329 -10.442 1.817 146 140 108
0.092 -10.822 1.771 139 140 108
1.992 -12.392 1.569 130 102 91
1.811 -12.410 1.579 126 134 180
-0.542 -10.547 1.825 127 81 94
-1.408 -9.832 1.917 129 126 71
-2.278 -10.162 1.917 130 125 87
-2.307 -10.186 1.915 114 110 73
-2.336 -10.204 1.913 132 130 92
-2.366 -10.220 1.911 97 100 53
-2.398 -10.242 1.909 135 141 95
-2.483 -10.469 1.889 99 105 61
-2.685 -11.072 1.837 113 118 62
-2.744 -11.101 1.833 109 118 63
-2.795 -11.095 1.833 104 114 62
-2.847 -11.092 1.831 60 69 22
-2.902 -11.094 1.830 80 89 44
-2.961 -11.103 1.827 121 127 89
-3.083 -11.250 1.812 105 111 77
-3.184 -11.333 1.803 66 74 37
-3.269 -11.371 1.797 135 145 93
-3.342 -11.377 1.794 108 118 49
-3.408 -11.369 1.791 126 136 63
-3.471 -11.352 1.790 133 144 86
-3.526 -11.323 1.790 67 76 45
-3.583 -11.294 1.789 46 57 25
-3.641 -11.267 1.788 36 48 10
-3.695 -11.234 1.788 29 38 21
-3.744 -11.193 1.788 30 36 34
-3.809 -11.173 1.786 57 66 39
-3.888 -11.166 1.782 87 100 57
-3.945 -11.132 1.781 75 90 47
-4.001 -11.095 1.780 66 79 49
-4.054 -11.056 1.780 59 68 51
-4.106 -11.014 1.779 69 81 45
-4.158 -10.972 1.778 98 112 77
-4.194 -10.915 1.779 43 57 31
-4.217 -10.849 1.781 79 89 65
-4.245 -10.787 1.783 31 41 17
-4.288 -10.738 1.782 37 49 29
-4.334 -10.691 1.781 25 37 25
-4.402 -10.658 1.778 5 14 0
-4.477 -10.627 1.775 83 93 56
-4.533 -10.582 1.773 57 69 31
-4.563 -10.520 1.773 76 90 54
-4.612 -10.470 1.772 92 104 56
-4.640 -10.407 1.772 74 85 43
-12.213 -13.914 1.088 98 104 94
-12.394 -13.695 1.082 80 84 85
-4.764 -10.237 1.768 50 62 42
-4.726 -10.148 1.774 49 62 34
-4.697 -10.066 1.779 63 74 40
-4.686 -9.992 1.781 88 99 57
-4.677 -9.921 1.784 82 90 43
-4.643 -9.845 1.788 76 84 33
-4.582 -9.764 1.795 73 81 32
-4.433 -9.668 1.809 94 100 66
-4.307 -9.584 1.820 67 71 46
-4.232 -9.517 1.827 77 80 61
-4.209 -9.461 1.830 53 55 44
-4.208 -9.409 1.830 47 49 38
-4.217 -9.359 1.830 92 94 80
-4.231 -9.309 1.829 101 104 87
-4.240 -9.259 1.829 39 42 23
-4.239 -9.207 1.829 89 89 77
-4.241 -9.156 1.829 69 67 52
-4.236 -9.105 1.829 43 41 28
-4.236 -9.054 1.829 49 49 41
-4.236 -9.003 1.829 65 67 56
-4.229 -8.952 1.829 49 52 45
-4.223 -8.901 1.829 34 36 35
-4.214 -8.851 1.829 23 24 26
-4.227 -8.796 1.828 36 38 35
-4.219 -8.745 1.827 36 38 35
-4.247 -8.686 1.824 78 77 56
-4.278 -8.624 1.820 111 109 61
-4.291 -8.565 1.818 121 121 69
-4.311 -8.502 1.815 101 98 55
-4.334 -8.436 1.812 97 97 43
-4.345 -8.372 1.809 96 98 48
-4.348 -8.310 1.807 99 104 48
-4.342 -8.250 1.806 100 108 51
-4.339 -8.188 1.804 82 89 48
-4.331 -8.127 1.803 89 97 48
-4.319 -8.066 1.801 95 103 52
-4.287 -8.016 1.802 65 68 37
-4.272 -7.957 1.800 65 71 9
-4.260 -7.894 1.799 103 110 42
-4.239 -7.836 1.798 61 64 17
-4.230 -7.769 1.795 120 125 58
-4.209 -7.709 1.794 96 100 39
-4.159 -7.669 1.795 63 69 23
-4.122 -7.621 1.795 53 63 13
-4.102 -7.558 1.793 77 82 18
-4.079 -7.496 1.792 112 115 44
-4.028 -7.458 1.793 135 141 69
-3.955 -7.442 1.796 108 114 54
-3.896 -7.414 1.798 41 46 6
-3.853 -7.372 1.798 74 78 43
-3.809 -7.330 1.798 85 91 55
-3.759 -7.296 1.799 77 82 50
-3.710 -7.260 1.799 53 58 28
-3.664 -7.222 1.799 49 56 22
-3.620 -7.180 1.798 75 84 41
-3.577 -7.136 1.797 116 119 72
-3.535 -7.090 1.796 85 91 43
-3.482 -7.059 1.796 67 69 30
-3.433 -7.023 1.796 61 62 30
-3.381 -6.991 1.796 60 66 32
-3.326 -6.964 1.796 88 95 53
-3.269 -6.942 1.797 86 94 47
-3.209 -6.927 1.798 82 91 46
-3.146 -6.919 1.799 71 81 44
-3.087 -6.905 1.800 33 43 8
-3.028 -6.892 1.801 75 86 46
-2.969 -6.879 1.802 80 89 42
-2.910 -6.869 1.803 68 77 20
-2.846 -6.875 1.805 68 75 21
-2.739 -7.044 1.820 109 108 60
-2.644 -7.199 1.835 162 153 112
-2.600 -7.173 1.833 120 113 67
-2.557 -7.132 1.831 96 97 53
-2.512 -7.097 1.829 165 162 119
-2.467 -7.050 1.825 125 121 76
-2.421 -6.997 1.822 135 133 84
-2.372 -6.949 1.818 111 118 67
-2.320 -6.908 1.815 71 78 26
-2.266 -6.875 1.813 88 98 38
-2.211 -6.839 1.810 70 79 16
-2.154 -6.004 1.690 17 29 15
-2.078 -6.033 1.692 48 58 47
-2.004 -6.088 1.698 26 34 23
-1.933 -6.151 1.703 34 41 25
-1.865 -6.220 1.709 50 59 32
-1.801 -6.295 1.716 48 58 34
-1.744 -6.387 1.724 13 21 6
-1.684 -6.447 1.729 18 28 20
-1.624 -6.492 1.732 13 23 14
-1.565 -6.531 1.735 25 36 22
-1.506 -6.567 1.737 28 39 23
-1.447 -6.598 1.739 26 37 21
-1.390 -6.635 1.740 28 39 23
-1.339 -6.687 1.744 26 37 21
-1.291 -6.742 1.747 22 33 19
-1.241 -6.789 1.750 30 40 29
-1.191 -6.831 1.752 39 48 31
-1.140 -6.868 1.754 47 56 37
-1.098 -6.922 1.757 28 37 16
-1.056 -6.974 1.759 34 43 24
-1.013 -7.021 1.762 35 47 23
-0.974 -7.072 1.764 38 48 24
-0.931 -7.114 1.766 37 45 22
-0.886 -7.153 1.766 52 58 30
-0.840 -7.189 1.767 55 65 30
-0.795 -7.226 1.768 50 59 30
-0.767 -7.286 1.771 41 47 33
-0.088 -6.508 1.669 68 72 71
0.015 -6.513 1.663 77 79 78
0.086 -6.559 1.662 81 85 88
0.082 -6.688 1.672 59 68 73
-0.087 -6.985 1.705 50 65 58
-0.354 -7.355 1.749 39 53 28
-0.815 -7.881 1.818 58 67 40
-1.266 -8.351 1.882 65 69 44
-1.311 -8.429 1.890 78 77 57
-1.316 -8.468 1.893 105 102 83
-1.319 -8.504 1.896 83 82 62
-1.320 -8.537 1.898 87 86 66
-1.320 -8.569 1.900 80 79 59
-1.176 -8.722 1.895 108 103 74
-1.147 -8.739 1.893 113 105 82
-1.113 -8.754 1.890 110 103 77
-1.080 -8.772 1.888 116 109 80
-1.063 -8.796 1.887 119 112 86
-1.046 -8.820 1.886 122 108 82
-1.032 -8.845 1.885 145 130 107
-1.022 -8.872 1.885 88 76 54
-1.016 -8.900 1.885 97 86 66
-1.018 -8.930 1.886 82 77 57
-1.018 -8.959 1.886 101 96 76
-1.019 -8.988 1.887 121 116 97
-1.014 -9.015 1.887 86 81 61
-1.008 -9.043 1.887 97 91 67
-0.998 -9.071 1.886 96 96 72
-0.987 -9.099 1.885 76 79 60
-0.987 -9.127 1.885 88 90 68
-0.984 -9.156 1.885 97 92 70
-0.982 -9.185 1.885 100 89 69
-0.987 -9.213 1.885 77 64 45
-1.002 -9.241 1.886 68 60 39
-1.021 -9.268 1.888 88 84 59
-1.066 -9.290 1.892 129 124 104
-1.109 -9.311 1.896 87 82 62
-1.138 -9.332 1.898 133 129 104
-1.154 -9.629 1.891 164 156 117
-1.186 -9.643 1.893 125 112 78
-0.505 -10.038 1.816 119 118 100
0.349 -10.574 1.717 151 116 96
2.443 -11.912 1.472 106 54 41
2.142 -11.877 1.499 165 158 139
-0.306 -10.391 1.781 102 94 71
-0.111 -10.596 1.754 105 107 68
0.558 -11.168 1.667 127 131 104
1.946 -12.356 1.488 134 94 86
1.736 -12.348 1.504 107 59 59
0.342 -11.310 1.675 147 76 72
-1.379 -9.859 1.897 88 83 54
-1.501 -9.913 1.902 101 98 65
-1.522 -9.927 1.902 120 119 88
-1.542 -9.941 1.902 108 108 70
-2.253 -10.153 1.901 131 123 86
-2.280 -10.175 1.899 128 123 85
-2.308 -10.195 1.897 109 107 68
-2.338 -10.215 1.894 115 116 74
-2.369 -10.233 1.892 89 92 45
-2.411 -10.298 1.885 78 84 36
-2.580 -10.857 1.827 116 124 75
-2.689 -11.087 1.803 91 101 48
-2.744 -11.100 1.800 82 90 43
-2.795 -11.095 1.799 110 117 75
-2.848 -11.096 1.797 118 125 81
-2.905 -11.102 1.795 88 95 51
-2.966 -11.116 1.791 61 69 30
-3.078 -11.240 1.775 136 141 109
-3.172 -11.309 1.765 58 64 30
-3.267 -11.366 1.756 69 74 33
-3.341 -11.376 1.752 110 114 55
-3.407 -11.367 1.750 105 108 51
-3.470 -11.352 1.748 116 123 55
-3.527 -11.324 1.747 94 102 43
-3.585 -11.297 1.746 70 80 45
-3.644 -11.271 1.745 69 84 45
-3.697 -11.237 1.745 31 42 25
-3.743 -11.191 1.746 39 48 43
-3.799 -11.160 1.745 20 30 21
-3.876 -11.152 1.740 20 32 8
-3.943 -11.130 1.738 75 88 45
-4.004 -11.099 1.736 69 81 43
-4.053 -11.055 1.735 72 85 65
-4.099 -11.007 1.736 50 63 45
-4.143 -10.958 1.736 54 68 43
-4.182 -10.905 1.736 41 55 32
-4.231 -10.860 1.735 51 62 32
-4.285 -10.818 1.734 80 92 54
-4.313 -10.757 1.735 59 70 36
-4.338 -10.694 1.737 23 33 24
-4.408 -10.662 1.733 88 97 76
-4.489 -10.634 1.728 74 87 43
-4.543 -10.588 1.726 69 84 45
-4.571 -10.525 1.726 57 73 37
-4.625 -10.477 1.724 72 85 39
-4.656 -10.415 1.724 81 91 54
-12.226 -13.919 0.903 81 86 82
-12.425 -13.709 0.894 76 80 79
-4.783 -10.245 1.720 27 39 15
-4.734 -10.151 1.728 31 44 18
-4.722 -10.075 1.731 53 64 34
-4.721 -10.004 1.734 70 81 41
-4.712 -9.932 1.737 104 112 73
-4.680 -9.855 1.742 61 71 21
-4.644 -9.780 1.747 75 86 30
-4.500 -9.683 1.763 58 66 27
-4.313 -9.585 1.783 94 97 70
-4.230 -9.516 1.793 73 75 54
-4.207 -9.461 1.796 49 49 37
-4.206 -9.409 1.796 53 53 41
-4.215 -9.359 1.796 60 60 48
-4.230 -9.309 1.795 93 95 81
-4.239 -9.258 1.794 47 51 37
-4.237 -9.207 1.795 22 27 20
-4.240 -9.156 1.795 73 75 54
-4.237 -9.105 1.795 108 107 86
-4.236 -9.054 1.795 50 51 37
-4.235 -9.003 1.794 45 46 38
-4.231 -8.952 1.795 23 26 17
-4.225 -8.901 1.794 31 33 28
-4.216 -8.850 1.795 28 30 29
-4.223 -8.797 1.793 35 37 34
-4.224 -8.744 1.792 31 33 28
-4.239 -8.688 1.790 49 48 30
-4.268 -8.627 1.785 81 77 42
-4.280 -8.568 1.783 98 96 55
-4.301 -8.505 1.779 93 90 47
-4.320 -8.441 1.775 96 97 40
-4.334 -8.376 1.772 92 94 47
-4.340 -8.313 1.769 88 91 46
-4.333 -8.254 1.768 67 71 20
-4.326 -8.194 1.766 92 95 50
-4.305 -8.139 1.766 53 55 18
-4.283 -8.085 1.765 94 95 61
-4.270 -8.025 1.764 90 95 29
-4.301 -7.940 1.757 121 125 48
-4.297 -7.872 1.754 103 105 42
-4.266 -7.819 1.754 111 114 47
-4.238 -7.764 1.753 119 122 55
-4.202 -7.714 1.753 92 93 35
-4.164 -7.666 1.754 96 100 41
-4.147 -7.601 1.751 95 102 32
-4.125 -7.539 1.749 92 95 28
-4.094 -7.483 1.748 93 94 26
-4.059 -7.430 1.747 102 104 29
-4.013 -7.386 1.747 126 126 52
-3.941 -7.369 1.751 84 83 26
-3.860 -7.365 1.756 85 86 46
-3.804 -7.336 1.758 35 39 14
-3.752 -7.305 1.759 48 56 32
-3.705 -7.267 1.759 70 75 53
-3.661 -7.226 1.759 56 59 30
-3.623 -7.176 1.757 64 69 28
-3.581 -7.130 1.756 75 78 33
-3.533 -7.093 1.756 66 73 29
-3.482 -7.060 1.756 90 92 53
-3.433 -7.023 1.755 82 84 47
-3.382 -6.989 1.755 51 60 17
-3.328 -6.961 1.755 65 73 32
-3.272 -6.936 1.755 81 88 46
-3.213 -6.918 1.756 62 70 29
-3.151 -6.907 1.758 63 73 39
-3.091 -6.894 1.759 43 54 20
-3.034 -6.876 1.759 56 67 33
-2.976 -6.859 1.760 89 99 62
-2.915 -6.853 1.761 71 81 31
-2.854 -6.851 1.763 66 73 22
-2.761 -6.962 1.776 97 97 47
-2.662 -7.131 1.794 152 146 96
-2.621 -7.079 1.790 102 96 46
-2.576 -7.038 1.787 45 48 3
-2.528 -7.004 1.785 85 86 44
-2.479 -6.971 1.782 135 131 84
-2.429 -6.931 1.779 103 100 45
-2.376 -6.903 1.777 126 130 79
-2.323 -6.868 1.774 77 84 33
-2.268 -6.840 1.772 101 112 56
-2.212 -6.813 1.769 60 75 16
-2.154 -6.047 1.642 42 56 43
-2.079 -6.079 1.646 44 56 46
-2.006 -6.126 1.651 32 40 27
-1.934 -6.172 1.656 57 62 40
-1.866 -6.225 1.661 52 59 28
-1.802 -6.302 1.669 49 58 31
-1.743 -6.383 1.678 51 60 41
-1.684 -6.447 1.684 37 45 30
-1.625 -6.497 1.688 23 33 24
-1.566 -6.538 1.691 34 45 31
-1.508 -6.575 1.694 32 43 26
-1.451 -6.614 1.697 21 32 16
-1.395 -6.654 1.699 31 42 26
-1.342 -6.698 1.702 27 38 22
-1.292 -6.746 1.705 24 35 21
-1.244 -6.795 1.709 24 34 23
-1.195 -6.839 1.711 24 32 21
-1.147 -6.884 1.714 35 43 28
-1.104 -6.935 1.717 39 48 27
-1.065 -6.992 1.721 38 47 30
-1.026 -7.045 1.725 36 45 26
-0.986 -7.093 1.727 42 50 27
-0.944 -7.136 1.729 60 65 43
-0.903 -7.181 1.731 48 53 30
-0.863 -7.223 1.733 34 42 21
-0.824 -7.267 1.734 33 40 22
-0.809 -7.343 1.740 30 36 24
-0.130 -6.562 1.621 73 78 72
0.036 -6.487 1.603 77 79 74
0.100 -6.543 1.603 62 66 67
0.067 -6.705 1.619 102 108 106
-0.232 -7.137 1.679 52 65 48
-0.403 -7.405 1.715 44 54 29
-0.653 -7.727 1.762 60 69 40
-1.140 -8.236 1.842 76 85 56
-1.254 -8.379 1.863 67 72 50
-1.291 -8.447 1.871 66 69 52
-1.304 -8.492 1.876 67 68 52
-1.308 -8.528 1.879 79 80 64
-1.310 -8.561 1.881 78 79 63
-1.318 -8.597 1.884 82 85 64
-1.171 -8.691 1.875 104 98 74
-1.144 -8.708 1.873 95 88 62
-1.120 -8.728 1.871 119 112 86
-1.106 -8.752 1.871 116 109 81
-1.086 -8.774 1.869 114 108 76
-1.070 -8.798 1.869 78 71 45
-1.048 -8.820 1.867 138 126 100
-1.030 -8.845 1.866 137 124 105
-1.021 -8.872 1.866 71 59 45
-1.015 -8.900 1.866 68 61 45
-1.012 -8.929 1.866 147 140 122
-1.010 -8.958 1.866 87 80 64
-1.007 -8.986 1.867 102 94 83
-1.003 -9.014 1.866 76 69 53
-0.997 -9.042 1.866 100 93 74
-0.989 -9.070 1.866 70 69 51
-0.981 -9.098 1.865 72 74 60
-0.975 -9.127 1.864 75 76 60
-0.970 -9.156 1.864 89 87 66
-0.971 -9.185 1.864 69 62 43
-0.977 -9.214 1.864 95 87 68
-0.986 -9.242 1.865 75 68 49
-1.012 -9.269 1.868 140 135 113
-1.070 -9.290 1.874 76 69 51
-1.099 -9.313 1.877 98 91 75
-1.117 -9.336 1.879 107 100 81
-1.142 -9.358 1.881 89 84 62
-1.168 -9.378 1.884 89 84 62
-1.189 -9.398 1.886 98 93 71
-1.197 -9.472 1.884 83 83 49
-1.165 -9.510 1.879 87 84 49
-1.126 -9.553 1.873 96 93 60
-1.062 -9.609 1.864 122 119 78
-0.829 -9.744 1.833 92 92 40
-0.735 -9.827 1.819 121 125 66
-0.804 -9.836 1.826 134 131 76
2.191 -11.479 1.433 153 126 107
2.483 -11.783 1.387 123 19 30
2.436 -11.908 1.384 105 72 67
2.338 -12.001 1.388 124 28 39
-0.174 -10.479 1.726 163 138 116
-0.051 -10.638 1.704 132 134 87
0.697 -11.271 1.592 168 170 146
1.897 -12.318 1.409 122 69 55
1.692 -12.313 1.428 156 57 25
0.761 -11.671 1.557 162 68 42
-1.373 -9.865 1.879 117 112 83
-1.427 -9.848 1.884 87 82 53
-1.445 -9.865 1.885 102 103 69
-1.460 -9.886 1.884 110 107 74
-1.474 -9.906 1.884 111 105 69
-1.491 -9.925 1.883 150 141 102
-1.510 -9.941 1.883 112 105 76
-1.531 -9.955 1.883 96 90 54
-1.552 -9.968 1.884 186 181 141
-1.577 -9.975 1.885 141 135 103
-1.557 -10.152 1.866 221 215 193
-1.538 -10.244 1.856 69 71 66
-1.617 -10.161 1.869 94 99 95
-1.692 -10.074 1.882 55 59 60
-1.796 -10.085 1.886 90 80 44
-1.820 -10.092 1.886 118 109 78
-2.254 -10.163 1.884 140 136 98
-2.281 -10.181 1.881 130 125 87
-2.310 -10.207 1.878 135 127 88
-2.340 -10.226 1.875 153 141 101
-2.370 -10.242 1.873 121 116 76
-2.414 -10.313 1.864 125 123 84
-2.580 -10.853 1.799 107 109 69
-2.679 -11.051 1.774 97 104 62
-2.739 -11.084 1.768 84 88 53
-2.790 -11.082 1.767 122 126 91
-2.846 -11.090 1.764 81 86 45
-2.908 -11.110 1.759 81 87 41
-2.978 -11.145 1.752 75 79 28
-3.095 -11.277 1.733 113 117 66
-3.185 -11.336 1.723 64 70 22
-3.262 -11.356 1.717 65 72 30
-3.334 -11.362 1.712 81 92 34
-3.405 -11.364 1.708 71 74 27
-3.478 -11.365 1.704 85 88 7
-3.541 -11.346 1.702 138 135 54
-3.592 -11.307 1.702 58 66 29
-3.645 -11.272 1.702 72 88 49
-3.694 -11.232 1.703 30 44 18
-3.740 -11.188 1.703 34 48 25
-3.798 -11.159 1.702 50 64 38
-3.877 -11.153 1.697 72 87 44
-3.953 -11.140 1.692 110 124 71
-4.010 -11.105 1.690 75 85 50
-4.055 -11.056 1.691 46 60 27
-4.096 -11.005 1.692 83 95 75
-4.142 -10.958 1.691 72 83 51
-4.185 -10.908 1.691 65 75 38
-4.234 -10.863 1.690 50 58 19
-4.291 -10.824 1.688 96 106 69
-4.332 -10.771 1.688 48 59 29
-4.361 -10.710 1.690 25 35 10
-4.432 -10.678 1.685 72 84 44
-4.509 -10.647 1.679 76 94 36
-4.557 -10.596 1.678 57 75 27
-4.581 -10.531 1.679 58 76 36
-4.632 -10.480 1.677 48 61 15
-4.665 -10.420 1.677 61 71 37
-12.227 -13.920 0.718 91 95 96
-12.442 -13.716 0.705 74 79 75
-4.782 -10.245 1.673 51 65 32
-4.735 -10.151 1.682 46 59 33
-4.732 -10.078 1.685 72 81 62
-4.740 -10.010 1.687 41 49 25
-4.738 -9.940 1.689 69 77 53
-4.704 -9.862 1.696 97 108 66
-4.656 -9.783 1.703 90 103 49
-4.562 -9.697 1.716 61 71 34
-4.353 -9.594 1.742 73 76 47
-4.229 -9.516 1.758 65 64 43
-4.204 -9.460 1.762 68 66 53
-4.201 -9.408 1.763 51 49 37
-4.212 -9.359 1.762 74 71 56
-4.230 -9.309 1.761 80 77 60
-4.237 -9.258 1.760 90 91 77
-4.238 -9.207 1.760 26 29 22
-4.239 -9.156 1.760 43 44 30
-4.236 -9.105 1.760 75 74 56
-4.236 -9.054 1.760 64 65 49
-4.232 -9.003 1.760 27 28 22
-4.228 -8.952 1.760 84 87 76
-4.225 -8.901 1.760 59 62 53
-4.219 -8.850 1.760 23 25 22
-4.221 -8.797 1.759 35 37 34
-4.222 -8.745 1.757 61 64 57
-4.231 -8.690 1.755 57 55 42
-4.245 -8.632 1.752 90 84 60
-4.252 -8.576 1.750 81 78 47
-4.266 -8.516 1.746 89 85 48
-4.289 -8.451 1.741 105 105 55
-4.295 -8.390 1.738 122 123 79
-4.311 -8.324 1.734 78 81 36
-4.321 -8.258 1.730 99 101 51
-4.316 -8.198 1.728 94 95 35
-4.284 -8.149 1.729 115 114 68
-4.269 -8.092 1.728 76 77 20
-4.308 -8.005 1.719 117 122 32
-4.322 -7.928 1.713 107 110 21
-4.300 -7.870 1.712 95 94 27
-4.271 -7.816 1.712 78 79 3
-4.242 -7.761 1.711 115 119 43
-4.215 -7.705 1.710 108 111 44
-4.186 -7.649 1.709 104 105 37
-4.169 -7.584 1.706 111 113 38
-4.134 -7.532 1.705 93 99 27
-4.100 -7.478 1.704 88 93 26
-4.065 -7.425 1.703 97 100 33
-4.020 -7.380 1.704 55 55 0
-3.968 -7.342 1.705 99 99 39
-3.904 -7.318 1.708 87 91 32
-3.812 -7.327 1.716 49 53 2
-3.742 -7.315 1.720 65 70 38
-3.693 -7.281 1.721 66 71 51
-3.655 -7.233 1.719 104 107 76
-3.622 -7.177 1.717 102 101 53
-3.584 -7.127 1.714 80 84 33
-3.540 -7.082 1.713 100 105 49
-3.492 -7.044 1.712 155 155 105
-3.442 -7.009 1.712 70 67 22
-3.392 -6.972 1.711 87 91 41
-3.337 -6.943 1.711 59 67 16
-3.280 -6.921 1.712 59 67 18
-3.217 -6.909 1.714 63 72 29
-3.153 -6.903 1.717 45 54 25
-3.091 -6.894 1.718 37 47 20
-3.033 -6.878 1.719 57 66 45
-2.974 -6.864 1.720 38 47 26
-2.917 -6.847 1.720 64 74 39
-2.858 -6.836 1.721 61 72 30
-2.778 -6.902 1.731 86 94 47
-2.694 -7.001 1.744 112 114 64
-2.644 -6.974 1.743 94 96 46
-2.593 -6.952 1.741 102 110 63
-2.541 -6.925 1.740 107 113 69
-2.489 -6.902 1.738 82 85 40
-2.435 -6.880 1.736 62 72 20
-2.380 -6.862 1.735 66 80 31
-2.325 -6.844 1.733 61 74 30
-2.269 -6.828 1.732 73 86 40
-2.212 -6.813 1.730 61 73 25
-2.154 -6.109 1.599 23 34 26
-2.080 -6.134 1.602 29 39 30
-2.008 -6.169 1.606 31 39 24
-1.937 -6.206 1.611 47 55 31
-1.868 -6.253 1.616 52 62 38
-1.804 -6.317 1.623 38 48 24
-1.743 -6.385 1.631 44 56 34
-1.685 -6.449 1.638 36 48 26
-1.627 -6.507 1.644 23 34 20
-1.570 -6.555 1.649 15 27 13
-1.513 -6.596 1.653 40 51 34
-1.458 -6.641 1.656 30 41 24
-1.404 -6.684 1.660 28 36 21
-1.352 -6.728 1.663 30 36 24
-1.303 -6.775 1.667 27 35 22
-1.254 -6.823 1.671 22 30 17
-1.206 -6.868 1.674 28 34 24
-1.163 -6.919 1.678 25 31 21
-1.122 -6.973 1.682 32 38 26
-1.087 -7.036 1.688 35 42 26
-1.062 -7.112 1.695 49 59 35
-1.027 -7.166 1.699 50 57 24
-0.994 -7.220 1.703 77 78 44
-0.969 -7.284 1.708 77 75 50
-0.948 -7.351 1.714 72 73 57
-0.922 -7.407 1.718 58 61 40
-0.909 -7.476 1.725 51 56 34
-0.841 -7.473 1.719 47 53 39
0.061 -6.457 1.540 52 52 44
-0.292 -6.997 1.625 72 79 71
-0.560 -7.396 1.687 49 61 47
-0.460 -7.377 1.677 50 55 32
-0.420 -7.422 1.677 44 50 24
-0.426 -7.511 1.686 43 51 27
-0.444 -7.606 1.696 38 43 21
-0.833 -8.016 1.770 55 60 40
-1.211 -8.382 1.839 48 49 31
-1.285 -8.478 1.855 106 107 89
-1.293 -8.517 1.859 75 77 63
-1.297 -8.552 1.862 76 80 66
-1.305 -8.589 1.866 62 66 52
-1.249 -8.700 1.866 80 80 68
-1.172 -8.691 1.857 79 77 56
-1.147 -8.710 1.855 104 99 77
-1.124 -8.729 1.853 108 101 75
-1.105 -8.751 1.852 107 101 75
-1.092 -8.776 1.851 90 84 60
-1.072 -8.799 1.850 104 93 71
-1.049 -8.821 1.848 63 46 28
-1.033 -8.846 1.847 102 89 73
-1.023 -8.873 1.846 75 66 57
-1.016 -8.900 1.846 55 52 45
-1.009 -8.928 1.846 75 73 60
-1.007 -8.957 1.847 119 116 99
-0.999 -8.985 1.846 102 95 76
-0.993 -9.013 1.846 100 92 71
-0.986 -9.041 1.845 91 83 62
-0.978 -9.069 1.845 73 70 53
-0.971 -9.098 1.844 70 71 57
-0.966 -9.127 1.843 66 65 47
-0.960 -9.156 1.843 93 92 74
-0.958 -9.185 1.842 107 99 80
-0.962 -9.215 1.843 81 65 49
-0.972 -9.243 1.844 69 61 48
-0.993 -9.271 1.846 73 68 46
-1.062 -9.291 1.855 138 131 112
-1.092 -9.314 1.859 72 66 50
-1.116 -9.336 1.861 100 95 75
-1.140 -9.358 1.864 81 79 58
-1.156 -9.380 1.865 158 156 135
-1.171 -9.402 1.867 105 103 80
-1.185 -9.424 1.868 103 98 76
-1.186 -9.450 1.867 104 104 76
-1.168 -9.482 1.863 66 67 36
-1.139 -9.519 1.858 93 89 60
-1.066 -9.576 1.846 76 76 50
-0.908 -9.672 1.822 104 105 61
-0.715 -9.794 1.793 114 121 67
-0.635 -9.875 1.779 97 107 54
-0.659 -9.909 1.780 71 76 35
2.449 -11.617 1.313 124 88 74
2.543 -11.817 1.289 105 22 30
2.451 -11.917 1.293 112 92 85
2.350 -12.009 1.298 132 21 30
-0.080 -10.542 1.672 143 124 91
0.012 -10.682 1.651 119 113 63
1.240 -11.674 1.444 103 97 75
1.850 -12.281 1.331 128 69 55
1.639 -12.269 1.354 168 64 35
0.699 -11.618 1.504 107 41 17
-1.360 -9.876 1.859 119 104 71
-1.409 -9.866 1.864 164 157 111
-1.433 -9.877 1.866 71 70 39
-1.453 -9.893 1.866 130 125 95
-1.468 -9.913 1.865 145 136 97
-1.485 -9.932 1.865 114 104 68
-1.506 -9.947 1.865 141 135 101
-1.525 -9.962 1.865 137 125 85
-1.547 -9.976 1.866 152 135 91
-1.571 -9.984 1.867 98 85 50
-1.595 -9.993 1.867 91 96 66
-1.618 -10.003 1.868 94 83 61
-1.446 -10.338 1.819 146 135 131
-1.411 -10.468 1.802 126 110 113
-1.490 -10.400 1.814 132 134 123
-1.540 -10.376 1.820 112 112 110
-1.617 -10.292 1.835 128 129 123
-1.735 -10.102 1.864 92 91 60
-1.763 -10.101 1.865 136 123 91
-1.796 -10.085 1.869 106 102 65
-2.253 -10.156 1.868 128 119 90
-2.281 -10.182 1.864 123 112 80
-2.310 -10.207 1.860 122 112 76
-2.339 -10.221 1.858 85 72 37
-2.369 -10.235 1.855 82 73 42
-2.410 -10.293 1.847 136 135 87
-2.533 -10.669 1.795 113 116 71
-2.612 -10.810 1.774 100 100 76
-2.710 -10.988 1.748 93 92 71
-2.790 -11.079 1.733 106 114 65
-2.851 -11.103 1.728 74 81 40
-2.917 -11.134 1.721 96 101 43
-3.036 -11.285 1.697 139 143 59
-3.137 -11.373 1.681 125 130 64
-3.202 -11.371 1.677 110 117 73
-3.269 -11.370 1.674 71 79 38
-3.339 -11.372 1.669 121 135 76
-3.407 -11.367 1.666 33 41 0
-3.483 -11.373 1.660 86 96 36
-3.544 -11.350 1.658 54 61 9
-3.594 -11.311 1.659 76 87 47
-3.648 -11.277 1.658 71 84 41
-3.702 -11.243 1.658 56 69 25
-3.759 -11.213 1.657 78 92 39
-3.827 -11.194 1.653 62 78 31
-3.898 -11.178 1.649 67 83 34
-3.964 -11.152 1.645 61 75 22
-4.012 -11.107 1.645 65 77 29
-4.059 -11.061 1.645 45 62 20
-4.105 -11.013 1.645 66 79 53
-4.151 -10.965 1.645 121 127 93
-4.199 -10.919 1.645 72 73 31
-4.251 -10.876 1.643 112 119 75
-4.303 -10.833 1.641 48 60 14
-4.352 -10.786 1.640 82 93 53
-4.390 -10.731 1.640 50 60 26
-4.446 -10.687 1.637 44 59 20
-4.517 -10.652 1.632 82 98 49
-4.558 -10.597 1.631 70 86 41
-4.583 -10.532 1.633 33 46 16
-4.634 -10.481 1.630 81 96 57
-4.674 -10.424 1.629 74 85 51
-12.228 -13.921 0.533 86 91 87
-12.448 -13.719 0.518 76 80 81
-4.776 -10.242 1.626 33 41 26
-4.729 -10.149 1.637 57 68 52
-4.732 -10.079 1.640 21 31 20
-4.744 -10.012 1.641 27 38 24
-4.749 -9.943 1.643 28 36 21
-4.706 -9.862 1.651 46 56 31
-4.650 -9.781 1.661 83 93 59
-4.533 -9.690 1.679 83 89 63
-4.333 -9.590 1.708 70 69 48
-4.225 -9.515 1.723 79 78 58
-4.202 -9.460 1.727 46 47 31
-4.200 -9.408 1.729 56 54 42
-4.211 -9.359 1.728 104 97 81
-4.226 -9.309 1.727 122 115 96
-4.233 -9.258 1.726 81 80 60
-4.233 -9.207 1.726 46 48 35
-4.237 -9.156 1.726 62 63 45
-4.238 -9.105 1.726 84 86 62
-4.237 -9.054 1.725 90 92 71
-4.232 -9.003 1.726 49 49 41
-4.233 -8.951 1.725 49 48 43
-4.229 -8.900 1.725 47 48 42
-4.219 -8.850 1.725 30 32 29
-4.218 -8.798 1.724 29 34 30
-4.227 -8.744 1.722 49 54 48
-4.232 -8.689 1.720 64 68 54
-4.233 -8.635 1.718 63 62 42
-4.232 -8.581 1.716 78 77 49
-4.231 -8.526 1.714 91 86 67
-4.234 -8.469 1.712 79 73 47
-4.240 -8.410 1.708 76 72 34
-4.296 -8.330 1.698 121 124 69
-4.321 -8.258 1.691 111 112 54
-4.308 -8.201 1.690 81 80 24
-4.285 -8.148 1.690 91 90 34
-4.293 -8.079 1.685 118 117 37
-4.336 -7.990 1.674 127 126 59
-4.326 -7.926 1.671 107 104 35
-4.297 -7.872 1.671 117 113 39
-4.275 -7.813 1.670 127 124 53
-4.249 -7.756 1.668 108 113 23
-4.224 -7.699 1.667 83 81 20
-4.191 -7.646 1.666 65 63 4
-4.164 -7.588 1.664 121 118 51
-4.136 -7.530 1.663 83 88 21
-4.101 -7.477 1.662 94 100 40
-4.062 -7.427 1.661 101 106 50
-4.019 -7.381 1.661 110 115 49
-3.972 -7.339 1.662 69 73 14
-3.920 -7.302 1.663 71 77 5
-3.856 -7.279 1.666 73 79 7
-3.763 -7.291 1.676 108 111 56
-3.691 -7.283 1.681 47 47 11
-3.652 -7.237 1.679 79 75 40
-3.618 -7.182 1.676 97 88 49
-3.581 -7.130 1.674 97 93 46
-3.540 -7.082 1.672 90 88 37
-3.494 -7.041 1.670 109 104 49
-3.447 -7.000 1.669 113 107 47
-3.398 -6.961 1.668 98 99 39
-3.343 -6.933 1.668 80 84 33
-3.284 -6.912 1.669 79 86 35
-3.222 -6.899 1.671 101 110 65
-3.156 -6.897 1.675 36 47 13
-3.092 -6.893 1.677 57 67 43
-3.033 -6.879 1.679 42 51 30
-2.972 -6.872 1.681 19 28 9
-2.913 -6.861 1.682 22 31 12
-2.855 -6.846 1.682 41 52 18
-2.790 -6.860 1.686 63 74 31
-2.717 -6.911 1.695 82 91 44
-2.661 -6.899 1.696 51 60 15
-2.605 -6.889 1.696 73 85 39
-2.550 -6.876 1.695 57 68 26
-2.494 -6.864 1.695 43 53 16
-2.438 -6.853 1.694 67 80 36
-2.382 -6.841 1.694 50 67 13
-2.326 -6.833 1.693 56 72 27
-2.269 -6.825 1.693 36 52 5
-2.212 -6.822 1.693 45 57 17
-2.154 -6.171 1.557 20 30 21
-2.082 -6.200 1.561 29 37 26
-2.011 -6.232 1.566 24 30 18
-1.941 -6.260 1.569 58 62 47
-1.873 -6.300 1.574 32 40 25
-1.808 -6.349 1.580 37 45 32
-1.747 -6.409 1.588 36 44 31
-1.688 -6.468 1.595 39 47 34
-1.632 -6.528 1.603 36 44 33
-1.575 -6.578 1.608 39 45 35
-1.521 -6.627 1.613 26 32 20
-1.467 -6.673 1.618 37 43 29
-1.413 -6.712 1.621 18 30 16
-1.363 -6.759 1.626 22 36 23
-1.315 -6.810 1.630 30 44 31
-1.266 -6.852 1.634 19 33 20
-1.218 -6.895 1.637 23 35 21
-1.175 -6.948 1.642 21 33 21
-1.135 -7.002 1.646 34 46 32
-1.109 -7.080 1.655 34 47 27
-1.096 -7.177 1.667 41 49 28
-1.082 -7.263 1.677 60 62 38
-1.057 -7.325 1.683 58 59 28
-1.032 -7.383 1.689 34 36 14
-1.003 -7.433 1.693 39 42 21
-0.976 -7.483 1.696 55 59 34
-0.951 -7.534 1.700 56 61 38
-0.924 -7.580 1.703 45 52 36
0.094 -6.416 1.474 53 54 46
-0.570 -7.320 1.640 53 61 48
-0.692 -7.542 1.677 38 53 32
-0.517 -7.436 1.648 46 54 33
-0.464 -7.466 1.645 42 47 25
-0.459 -7.542 1.653 53 58 38
-1.133 -8.231 1.796 70 73 56
-1.233 -8.361 1.820 53 55 41
-1.251 -8.414 1.827 63 65 51
-1.272 -8.467 1.834 53 55 41
-1.284 -8.510 1.839 56 59 48
-1.288 -8.546 1.843 51 56 49
-1.293 -8.580 1.846 58 63 57
-1.304 -8.617 1.851 45 50 44
-1.206 -8.679 1.843 72 70 57
-1.192 -8.701 1.842 109 103 79
-1.158 -8.714 1.838 105 100 70
-1.118 -8.727 1.834 99 90 59
-1.111 -8.753 1.834 86 79 51
-1.099 -8.778 1.834 84 77 51
-1.076 -8.800 1.832 81 66 43
-1.056 -8.823 1.830 93 78 57
-1.038 -8.847 1.828 144 131 115
-1.028 -8.874 1.828 62 56 42
-1.020 -8.901 1.828 55 57 46
-1.015 -8.929 1.828 58 58 48
-1.009 -8.957 1.828 86 84 69
-0.996 -8.984 1.826 87 82 60
-0.987 -9.012 1.826 73 66 47
-0.979 -9.040 1.825 84 77 58
-0.971 -9.069 1.824 70 67 50
-0.964 -9.098 1.823 93 91 76
-0.956 -9.127 1.822 73 68 49
-0.947 -9.156 1.821 106 97 68
-0.950 -9.186 1.821 117 103 66
-0.956 -9.215 1.822 123 107 71
-0.966 -9.244 1.823 106 97 68
-0.982 -9.272 1.825 69 63 41
-1.046 -9.293 1.834 78 73 54
-1.079 -9.316 1.839 54 50 38
-1.104 -9.338 1.842 66 65 47
-1.130 -9.360 1.845 54 53 33
-1.147 -9.382 1.847 98 97 77
-1.165 -9.404 1.849 106 104 83
-1.177 -9.426 1.850 106 101 79
-1.179 -9.452 1.849 112 105 77
-1.168 -9.482 1.846 110 99 71
-1.145 -9.517 1.841 74 60 31
-0.954 -9.619 1.809 126 122 85
-0.757 -9.735 1.776 96 98 51
-0.680 -9.810 1.761 48 54 6
-0.634 -9.875 1.751 95 106 66
-0.612 -9.933 1.744 50 55 32
2.477 -11.632 1.221 115 83 72
2.564 -11.829 1.196 110 27 37
2.449 -11.915 1.204 100 56 55
2.336 -11.999 1.212 122 30 35
-0.080 -10.542 1.630 163 146 128
-0.029 -10.653 1.614 95 82 50
1.644 -11.973 1.299 91 85 63
1.828 -12.264 1.251 116 66 41
1.573 -12.215 1.285 176 78 43
0.264 -11.242 1.526 114 58 33
-1.344 -9.890 1.838 145 125 100
-1.397 -9.878 1.845 88 77 59
-1.425 -9.885 1.847 85 83 62
-1.447 -9.899 1.848 123 116 87
-1.464 -9.918 1.847 112 103 64
-1.482 -9.936 1.847 107 98 65
-1.501 -9.952 1.847 122 117 85
-1.520 -9.969 1.847 138 125 90
-1.542 -9.982 1.848 138 120 82
-1.566 -9.992 1.848 81 68 34
-1.588 -10.004 1.849 120 120 82
-1.609 -10.017 1.849 112 117 76
-1.595 -10.089 1.839 233 222 202
-1.600 -10.134 1.833 183 183 157
-1.667 -10.069 1.846 131 131 103
-1.695 -10.070 1.848 102 101 81
-1.722 -10.071 1.850 80 79 61
-1.745 -10.081 1.850 90 85 56
-1.732 -10.177 1.836 97 81 48
-1.797 -10.083 1.853 70 65 33
-2.253 -10.162 1.850 120 107 73
-2.282 -10.188 1.846 141 129 89
-2.311 -10.210 1.842 137 126 81
-2.339 -10.219 1.840 148 136 94
-2.367 -10.227 1.838 75 63 37
-2.407 -10.283 1.829 106 103 62
-2.530 -10.655 1.771 87 89 52
-2.602 -10.775 1.751 123 123 97
-2.733 -11.064 1.704 127 129 90
-2.816 -11.160 1.687 90 101 35
-2.878 -11.177 1.682 122 131 78
-2.953 -11.227 1.671 118 123 57
-3.057 -11.336 1.650 137 140 59
-3.142 -11.383 1.639 134 138 77
-3.206 -11.379 1.635 65 74 29
-3.276 -11.384 1.630 76 85 40
-3.344 -11.382 1.626 95 104 57
-3.404 -11.362 1.624 66 74 50
-3.477 -11.362 1.618 64 74 40
-3.544 -11.350 1.615 98 111 58
-3.606 -11.328 1.612 64 76 28
-3.668 -11.305 1.610 78 90 44
-3.727 -11.276 1.608 94 106 58
-3.786 -11.247 1.606 81 95 36
-3.850 -11.222 1.604 90 108 46
-3.910 -11.191 1.601 60 76 14
-3.965 -11.154 1.600 87 100 47
-4.011 -11.106 1.601 82 90 53
-4.059 -11.060 1.601 44 53 22
-4.106 -11.014 1.600 83 92 65
-4.159 -10.973 1.599 69 78 33
-4.213 -10.932 1.597 38 46 0
-4.264 -10.887 1.595 73 83 49
-4.315 -10.842 1.593 53 64 30
-4.370 -10.799 1.591 66 77 45
-4.406 -10.742 1.591 45 55 31
-4.460 -10.697 1.589 27 39 15
-4.515 -10.651 1.585 29 43 10
-4.549 -10.592 1.586 58 72 37
-4.573 -10.526 1.588 46 59 33
-4.627 -10.477 1.584 29 42 16
-4.672 -10.423 1.582 39 49 24
-12.227 -13.920 0.347 86 90 89
-12.446 -13.718 0.330 72 76 77
-4.767 -10.238 1.580 30 38 27
-4.725 -10.148 1.591 24 34 23
-4.732 -10.079 1.594 31 41 30
-4.747 -10.013 1.595 30 40 29
-4.754 -9.945 1.597 20 31 17
-4.705 -9.862 1.607 39 51 31
-4.628 -9.776 1.622 34 44 17
-4.522 -9.688 1.640 38 46 22
-4.312 -9.585 1.674 110 109 89
-4.213 -9.513 1.690 60 61 43
-4.197 -9.459 1.694 36 38 24
-4.198 -9.408 1.695 56 54 42
-4.207 -9.358 1.694 92 80 66
-4.222 -9.309 1.692 120 109 89
-4.231 -9.258 1.692 129 125 100
-4.233 -9.207 1.692 102 101 81
-4.237 -9.156 1.691 99 101 80
-4.245 -9.105 1.690 55 57 35
-4.242 -9.054 1.690 76 77 59
-4.232 -9.003 1.691 43 43 35
-4.227 -8.952 1.691 46 46 44
-4.221 -8.901 1.691 33 34 29
-4.215 -8.850 1.691 41 43 38
-4.214 -8.799 1.690 34 39 33
-4.219 -8.745 1.688 63 66 59
-4.223 -8.692 1.686 54 56 45
-4.220 -8.639 1.684 77 75 60
-4.217 -8.585 1.683 79 77 54
-4.215 -8.531 1.681 59 54 32
-4.211 -8.477 1.679 86 79 51
-4.216 -8.419 1.675 97 92 54
-4.286 -8.334 1.661 96 98 48
-4.320 -8.259 1.652 108 114 54
-4.306 -8.202 1.651 66 69 14
-4.298 -8.142 1.648 78 77 20
-4.323 -8.065 1.640 118 117 37
-4.327 -7.995 1.635 125 129 52
-4.305 -7.938 1.633 98 97 32
-4.286 -7.878 1.631 126 119 65
-4.267 -7.818 1.629 71 64 18
-4.244 -7.760 1.627 120 120 46
-4.221 -7.700 1.625 74 73 8
-4.189 -7.647 1.624 101 100 33
-4.161 -7.590 1.622 106 105 41
-4.130 -7.534 1.621 93 94 37
-4.094 -7.483 1.620 74 77 24
-4.053 -7.435 1.620 62 61 13
-4.015 -7.385 1.619 88 87 31
-3.973 -7.338 1.619 99 99 35
-3.921 -7.301 1.620 110 107 62
-3.869 -7.265 1.621 97 99 26
-3.805 -7.242 1.625 63 64 0
-3.703 -7.269 1.638 91 87 62
-3.647 -7.243 1.640 90 79 57
-3.614 -7.188 1.637 102 89 55
-3.579 -7.133 1.633 89 84 28
-3.541 -7.081 1.630 95 95 25
-3.494 -7.040 1.628 116 112 49
-3.449 -6.995 1.626 132 125 70
-3.401 -6.956 1.625 113 113 53
-3.346 -6.927 1.625 107 108 51
-3.286 -6.909 1.627 58 61 6
-3.226 -6.891 1.628 101 108 57
-3.162 -6.882 1.631 54 61 20
-3.095 -6.884 1.635 60 69 38
-3.035 -6.874 1.637 37 46 19
-2.974 -6.866 1.639 39 47 23
-2.913 -6.861 1.641 37 45 22
-2.853 -6.854 1.643 49 58 31
-2.792 -6.852 1.645 60 70 33
-2.728 -6.867 1.650 75 87 41
-2.670 -6.861 1.651 98 110 62
-2.613 -6.852 1.652 87 101 50
-2.555 -6.850 1.653 55 67 27
-2.497 -6.848 1.654 49 60 28
-2.440 -6.841 1.654 32 43 9
-2.383 -6.835 1.654 54 69 28
-2.326 -6.829 1.654 54 68 33
-2.269 -6.822 1.653 59 74 31
-2.212 -6.822 1.654 58 73 34
-2.154 -3.388 1.048 114 122 111
-2.013 -3.406 1.050 117 123 113
-1.872 -3.406 1.050 120 123 116
-1.730 -3.409 1.049 121 122 117
-1.591 -3.437 1.051 119 121 116
-1.452 -3.459 1.052 120 122 119
-1.314 -3.492 1.055 119 121 118
-1.177 -3.523 1.056 127 129 126
-1.043 -3.570 1.060 128 127 123
-0.912 -3.624 1.064 129 128 124
-0.811 -3.793 1.087 146 147 142
-0.783 -4.199 1.151 144 146 141
-0.690 -4.328 1.167 94 96 91
-0.610 -4.482 1.187 144 146 143
-0.514 -4.571 1.196 154 154 152
-0.425 -4.673 1.207 177 176 174
-0.431 -4.995 1.256 174 174 166
-1.187 -6.973 1.606 118 117 112
-1.168 -7.070 1.619 46 46 38
-1.140 -7.140 1.627 131 132 116
-1.127 -7.235 1.640 69 67 52
-1.119 -7.328 1.653 46 43 24
-1.093 -7.386 1.659 91 87 62
-1.066 -7.438 1.664 49 51 27
-1.036 -7.483 1.668 68 69 37
-1.010 -7.531 1.672 47 46 16
-0.981 -7.575 1.675 51 51 23
-0.959 -7.624 1.679 53 55 31
0.131 -6.371 1.405 51 53 40
-0.876 -7.674 1.677 43 48 28
-0.857 -7.724 1.681 40 49 22
-0.855 -7.792 1.689 47 51 34
-0.841 -7.843 1.693 71 75 58
-0.990 -8.047 1.734 38 40 26
-1.204 -8.294 1.788 87 89 76
-1.225 -8.354 1.797 69 69 57
-1.239 -8.405 1.805 54 55 47
-1.255 -8.454 1.812 73 76 69
-1.269 -8.499 1.818 56 57 52
-1.274 -8.536 1.822 62 63 58
-1.265 -8.562 1.823 44 44 42
-1.265 -8.593 1.826 41 41 41
-1.263 -8.622 1.828 49 49 49
-1.265 -8.652 1.831 51 51 51
-1.256 -8.676 1.832 42 38 35
-1.214 -8.683 1.826 73 65 54
-1.181 -8.696 1.822 105 93 69
-1.146 -8.709 1.818 81 70 40
-1.123 -8.729 1.816 104 93 63
-1.101 -8.750 1.814 130 120 93
-1.083 -8.773 1.812 84 73 53
-1.071 -8.798 1.812 80 65 44
-1.053 -8.822 1.810 87 71 55
-1.040 -8.848 1.809 94 82 66
-1.029 -8.874 1.809 71 65 51
-1.017 -8.901 1.808 48 46 33
-1.007 -8.928 1.807 56 53 44
-0.997 -8.955 1.806 86 82 70
-0.983 -8.982 1.805 73 68 48
-0.971 -9.010 1.803 75 68 50
-0.966 -9.039 1.803 85 76 59
-0.955 -9.068 1.802 69 63 49
-0.948 -9.097 1.801 74 68 54
-0.940 -9.126 1.799 86 75 57
-0.931 -9.156 1.798 130 112 74
-0.932 -9.186 1.798 152 132 79
-0.939 -9.216 1.799 154 137 81
-0.954 -9.245 1.801 116 107 66
-0.981 -9.272 1.805 83 75 54
-1.024 -9.296 1.812 98 88 76
-1.062 -9.318 1.818 72 63 54
-1.084 -9.342 1.821 70 64 52
-1.102 -9.365 1.823 43 40 25
-1.121 -9.388 1.825 71 68 53
-1.139 -9.410 1.827 66 60 44
-1.149 -9.434 1.828 75 68 50
-1.151 -9.461 1.827 89 82 56
-1.145 -9.490 1.824 113 103 78
-1.127 -9.524 1.820 122 116 84
-0.771 -9.690 1.755 135 138 93
-0.654 -9.777 1.732 118 125 71
-0.618 -9.837 1.723 74 82 31
-0.594 -9.894 1.715 79 92 49
-0.573 -9.952 1.708 78 85 54
1.080 -10.885 1.395 85 88 61
2.567 -11.831 1.104 90 61 53
2.442 -11.911 1.115 81 62 55
2.269 -11.957 1.136 139 109 98
-0.237 -10.437 1.619 105 99 73
-0.207 -10.528 1.607 138 124 89
1.848 -12.125 1.177 135 129 115
1.845 -12.278 1.162 87 48 43
1.501 -12.156 1.219 134 45 29
0.394 -11.354 1.444 104 53 32
-1.342 -9.892 1.819 113 99 60
-1.394 -9.880 1.827 122 114 78
-1.423 -9.887 1.829 110 105 83
-1.443 -9.903 1.830 150 141 112
-1.460 -9.923 1.829 154 142 104
-1.477 -9.942 1.829 98 87 55
-1.497 -9.957 1.829 116 109 80
-1.517 -9.972 1.829 133 119 90
-1.538 -9.987 1.829 89 74 43
-1.560 -10.000 1.830 102 88 59
-1.576 -10.021 1.828 169 132 114
-1.581 -10.062 1.823 223 188 166
-1.546 -10.172 1.804 229 184 178
-1.557 -10.211 1.800 141 104 96
-1.665 -10.072 1.829 107 100 74
-1.698 -10.063 1.832 64 64 40
-1.725 -10.063 1.834 58 56 33
-1.747 -10.075 1.834 104 94 67
-1.672 -10.321 1.792 123 104 61
-2.255 -10.173 1.831 140 127 85
-2.283 -10.197 1.827 130 116 69
-2.312 -10.215 1.823 170 157 105
-2.339 -10.220 1.822 108 94 49
-2.366 -10.221 1.821 82 68 33
-2.412 -10.303 1.806 116 110 60
-2.637 -11.082 1.672 126 131 77
-2.709 -11.161 1.656 103 108 52
-2.779 -11.215 1.645 90 94 43
-2.835 -11.217 1.642 93 102 47
-2.893 -11.221 1.638 93 101 52
-2.960 -11.245 1.630 133 135 85
-3.053 -11.326 1.612 84 85 19
-3.144 -11.388 1.597 115 118 61
-3.212 -11.393 1.591 99 108 63
-3.283 -11.399 1.585 59 68 21
-3.353 -11.398 1.580 136 149 79
-3.409 -11.370 1.580 114 127 73
-3.474 -11.357 1.576 101 110 79
-3.544 -11.350 1.571 53 64 21
-3.607 -11.330 1.568 89 99 47
-3.666 -11.303 1.566 109 118 71
-3.725 -11.274 1.565 63 72 27
-3.787 -11.248 1.562 66 76 24
-3.849 -11.221 1.559 111 125 76
-3.907 -11.188 1.557 82 95 41
-3.962 -11.150 1.556 78 89 29
-4.010 -11.105 1.556 78 87 34
-4.061 -11.062 1.555 107 118 62
-4.115 -11.022 1.553 92 101 54
-4.168 -10.981 1.551 64 76 30
-4.210 -10.930 1.552 34 44 17
-4.250 -10.876 1.552 66 75 56
-4.297 -10.828 1.551 23 35 15
-4.346 -10.781 1.550 44 55 41
-4.381 -10.724 1.550 27 37 26
-4.429 -10.676 1.548 37 46 41
-4.487 -10.633 1.544 32 42 31
-4.532 -10.581 1.542 67 79 59
-4.563 -10.520 1.543 43 55 33
-4.618 -10.473 1.539 32 43 26
-4.661 -10.418 1.537 53 62 45
-12.213 -13.913 0.163 80 84 87
-12.418 -13.706 0.146 68 72 73
-4.758 -10.235 1.535 27 35 24
-4.719 -10.145 1.546 35 45 34
-4.732 -10.078 1.548 38 48 37
-4.749 -10.013 1.549 21 31 20
-4.759 -9.946 1.551 24 36 24
-4.720 -9.866 1.560 27 38 21
-4.654 -9.782 1.575 40 53 27
-4.536 -9.691 1.597 63 73 49
-4.293 -9.581 1.640 73 75 53
-4.197 -9.511 1.658 43 44 28
-4.190 -9.458 1.660 55 57 46
-4.196 -9.408 1.660 71 67 56
-4.205 -9.358 1.660 84 68 53
-4.220 -9.308 1.658 160 148 126
-4.232 -9.258 1.657 119 112 86
-4.237 -9.207 1.656 82 80 59
-4.242 -9.156 1.655 79 80 62
-4.245 -9.105 1.655 62 64 50
-4.242 -9.054 1.655 54 55 47
-4.234 -9.003 1.656 58 59 54
-4.220 -8.953 1.657 27 29 28
-4.213 -8.902 1.658 27 29 28
-4.210 -8.851 1.657 45 47 42
-4.211 -8.799 1.655 49 52 43
-4.216 -8.746 1.653 49 49 41
-4.217 -8.693 1.651 54 52 40
-4.214 -8.640 1.649 94 91 76
-4.207 -8.588 1.648 56 51 31
-4.207 -8.534 1.646 83 79 50
-4.202 -8.480 1.644 93 87 55
-4.207 -8.422 1.640 102 97 59
-4.263 -8.343 1.627 96 97 53
-4.314 -8.261 1.614 97 105 46
-4.311 -8.200 1.611 109 114 58
-4.308 -8.138 1.607 92 93 36
-4.321 -8.066 1.600 124 125 55
-4.310 -8.004 1.596 95 101 39
-4.284 -7.950 1.596 81 78 35
-4.263 -7.892 1.594 95 85 49
-4.251 -7.828 1.590 96 91 35
-4.241 -7.762 1.586 133 129 56
-4.221 -7.701 1.583 81 79 2
-4.190 -7.646 1.581 126 128 55
-4.160 -7.591 1.580 79 82 25
-4.127 -7.538 1.579 76 79 22
-4.091 -7.486 1.578 115 119 58
-4.050 -7.438 1.578 97 98 38
-4.007 -7.392 1.578 82 82 22
-3.963 -7.348 1.578 95 96 30
-3.912 -7.310 1.579 59 52 33
-3.860 -7.274 1.581 88 88 24
-3.803 -7.245 1.583 121 122 52
-3.704 -7.268 1.597 93 89 64
-3.645 -7.245 1.600 58 51 23
-3.617 -7.184 1.595 126 116 67
-3.584 -7.126 1.590 123 117 43
-3.546 -7.073 1.586 104 105 25
-3.497 -7.035 1.586 112 108 45
-3.446 -7.002 1.585 117 109 62
-3.397 -6.962 1.584 95 94 38
-3.345 -6.929 1.583 50 53 0
-3.287 -6.906 1.584 105 108 55
-3.228 -6.886 1.585 90 94 44
-3.166 -6.873 1.588 92 95 52
-3.100 -6.873 1.592 31 37 1
-3.039 -6.863 1.594 55 62 29
-2.978 -6.855 1.597 55 62 31
-2.915 -6.855 1.600 79 85 57
-2.853 -6.854 1.603 36 44 21
-2.792 -6.851 1.605 50 59 28
-2.733 -6.847 1.607 89 100 57
-2.674 -6.841 1.608 80 93 40
-2.617 -6.832 1.609 70 84 35
-2.557 -6.838 1.612 35 47 11
-2.497 -6.847 1.615 55 64 45
-2.439 -6.845 1.615 35 44 25
-2.382 -6.842 1.616 24 36 16
-2.325 -6.838 1.616 13 24 8
-2.269 -6.828 1.615 32 45 15
-2.212 -6.826 1.615 40 54 21
-2.154 -3.420 0.956 101 106 102
-2.013 -3.411 0.954 104 106 103
-1.872 -3.404 0.952 108 109 104
-1.730 -3.410 0.952 108 109 104
-1.590 -3.427 0.953 110 110 108
-1.450 -3.448 0.954 109 109 107
-1.312 -3.475 0.955 102 102 100
-1.173 -3.501 0.956 97 97 95
-1.036 -3.534 0.957 113 112 110
-0.902 -3.578 0.960 121 119 120
-0.774 -3.646 0.966 127 128 130
-0.651 -3.724 0.974 36 42 42
-0.530 -3.802 0.982 23 29 29
-0.414 -3.888 0.991 24 28 29
-0.300 -3.974 0.999 30 30 32
-0.191 -4.066 1.007 62 57 61
-0.092 -4.178 1.020 68 68 66
0.001 -4.294 1.032 99 99 99
0.082 -4.427 1.048 138 138 136
-0.417 -5.704 1.297 173 174 166
-1.161 -7.297 1.616 61 61 37
-1.151 -7.386 1.630 85 78 50
