ply
format ascii 1.0
element vertex 1465
property float x
property float y
property float z
property uchar red
property uchar green
property uchar blue
end_header
-10.911 -34.485 0.908 98 89 80
-10.861 -34.624 0.905 102 94 81
-10.817 -34.766 0.904 99 90 83
-10.781 -34.909 0.903 71 60 54
-10.749 -35.054 0.902 100 90 81
-10.722 -35.199 0.901 111 101 92
-10.704 -35.347 0.901 73 65 54
-10.681 -35.493 0.900 96 87 78
-10.663 -35.641 0.899 103 93 81
-10.652 -35.789 0.899 115 106 89
-10.641 -35.937 0.898 102 92 80
-10.619 -36.086 0.894 104 101 96
-10.594 -36.236 0.889 102 101 97
-9.396 -36.444 0.670 82 81 79
-9.339 -36.628 0.658 80 80 78
-9.356 -36.809 0.658 73 74 76
-9.601 -36.961 0.699 84 85 80
-10.804 -36.960 0.916 115 113 101
-10.876 -37.096 0.925 117 111 99
-10.945 -37.230 0.933 104 97 87
-11.013 -37.362 0.940 125 118 108
-11.098 -37.488 0.950 129 122 112
-11.180 -37.612 0.959 116 109 99
-11.265 -37.733 0.967 122 118 109
-11.345 -37.854 0.975 127 123 114
-11.430 -37.970 0.982 130 123 115
-11.515 -38.085 0.989 103 94 87
-11.605 -38.195 0.997 110 106 95
-11.697 -38.302 1.005 107 103 92
-11.797 -38.403 1.014 123 117 105
-11.857 -38.522 1.014 127 121 107
-15.476 -36.738 1.748 129 123 111
-15.521 -36.751 1.754 112 105 89
-15.539 -36.780 1.754 134 123 103
-15.549 -36.812 1.753 148 133 114
-15.559 -36.846 1.751 139 123 107
-15.573 -36.877 1.750 127 115 99
-15.585 -36.910 1.748 126 114 100
-15.603 -36.939 1.748 138 129 114
-15.620 -36.969 1.747 151 137 128
-15.637 -37.000 1.745 94 95 77
-15.658 -37.027 1.745 116 121 98
-15.678 -37.056 1.744 124 102 89
-15.698 -37.084 1.743 121 110 92
-15.723 -37.108 1.743 131 118 101
-15.746 -37.134 1.742 119 106 90
-15.769 -37.161 1.742 122 109 93
-15.792 -37.187 1.741 105 92 76
-15.817 -37.213 1.740 90 77 61
-15.840 -37.240 1.738 75 62 46
-15.865 -37.266 1.737 110 97 81
-15.890 -37.292 1.736 115 102 86
-15.916 -37.318 1.735 111 98 82
-15.944 -37.342 1.734 117 104 88
-15.973 -37.362 1.733 104 91 75
-16.005 -37.380 1.733 115 99 86
-16.036 -37.397 1.733 106 92 79
-16.068 -37.414 1.733 102 88 75
-16.100 -37.431 1.732 89 77 63
-16.132 -37.447 1.732 82 73 58
-16.164 -37.467 1.731 85 73 59
-16.195 -37.486 1.729 80 68 54
-16.228 -37.503 1.728 87 75 61
-16.261 -37.520 1.727 91 78 62
-16.296 -37.533 1.727 96 80 64
-16.330 -37.547 1.726 110 97 80
-16.365 -37.563 1.725 128 117 99
-16.401 -37.573 1.724 129 119 107
-16.437 -37.580 1.724 140 130 118
-16.473 -37.590 1.723 160 150 138
-16.510 -37.601 1.722 178 168 156
-16.546 -37.609 1.721 199 189 177
-16.584 -37.614 1.721 214 200 187
-16.621 -37.622 1.720 223 224 208
-16.657 -37.692 1.708 127 128 122
-16.696 -37.818 1.685 150 153 142
-16.739 -37.818 1.685 203 221 205
-16.771 -37.611 1.722 248 251 242
-16.804 -37.546 1.734 174 167 157
-16.838 -37.520 1.738 171 165 149
-16.870 -37.496 1.741 182 170 156
-16.902 -37.468 1.746 153 139 126
-16.932 -37.442 1.750 174 164 152
-16.961 -37.416 1.753 184 176 163
-16.989 -37.387 1.757 161 153 140
-17.016 -37.360 1.761 174 166 153
-17.042 -37.334 1.764 161 153 140
-17.067 -37.308 1.768 87 84 69
-17.092 -37.282 1.771 18 18 16
-17.117 -37.262 1.773 112 92 83
-17.159 -37.285 1.766 182 144 123
-17.251 -37.424 1.736 188 151 132
-17.350 -37.560 1.707 225 208 192
-17.380 -37.532 1.709 41 80 119
-17.412 -37.507 1.711 13 84 136
-17.449 -37.493 1.710 11 86 126
-17.489 -37.485 1.707 26 84 124
-17.543 -37.498 1.700 229 224 204
-17.581 -37.483 1.699 74 48 25
-17.616 -37.462 1.699 98 70 69
-17.654 -37.445 1.698 62 49 40
-17.690 -37.426 1.696 39 26 18
-17.727 -37.407 1.695 98 70 69
-17.761 -37.383 1.695 72 52 53
-17.794 -37.358 1.694 175 168 149
-17.829 -37.335 1.693 209 210 214
-17.861 -37.309 1.693 37 63 100
-17.892 -37.281 1.692 49 78 120
-17.924 -37.255 1.692 54 79 120
-17.955 -37.227 1.691 59 84 124
-17.986 -37.198 1.690 56 82 119
-18.018 -37.170 1.689 71 100 134
-18.052 -37.144 1.687 93 116 134
-18.087 -37.117 1.685 237 241 240
-18.112 -37.083 1.685 56 75 92
-18.140 -37.050 1.684 59 81 102
-18.165 -37.016 1.684 82 100 110
-18.189 -36.980 1.683 66 83 90
-18.213 -36.945 1.683 62 76 89
-18.238 -36.910 1.682 66 66 78
-18.258 -36.872 1.682 54 52 89
-18.277 -36.834 1.682 60 60 60
-18.308 -36.800 1.679 222 203 170
-18.325 -36.760 1.679 79 68 64
-18.351 -36.724 1.677 71 61 49
-18.376 -36.687 1.675 75 67 56
-18.398 -36.648 1.674 86 62 60
-18.418 -36.608 1.673 75 77 64
-18.436 -36.567 1.672 108 79 75
-18.454 -36.526 1.670 46 43 28
-18.468 -36.484 1.670 159 140 126
-18.479 -36.440 1.669 168 165 148
-18.491 -36.397 1.669 145 140 121
-18.504 -36.354 1.668 165 158 139
-18.514 -36.310 1.667 155 149 127
-18.522 -36.266 1.666 166 170 145
-18.527 -36.221 1.666 172 154 134
-18.534 -36.176 1.665 163 161 140
-18.544 -36.131 1.664 62 38 34
-18.547 -36.086 1.663 97 99 85
-18.552 -36.040 1.662 208 190 166
-18.551 -35.995 1.662 117 94 78
-18.548 -35.949 1.662 111 87 85
-18.550 -35.903 1.661 104 91 85
-18.548 -35.857 1.661 78 69 60
-18.544 -35.812 1.660 129 119 110
-18.538 -35.766 1.660 85 72 63
-18.531 -35.721 1.660 115 95 84
-18.523 -35.676 1.659 103 78 73
-18.519 -35.629 1.658 103 78 56
-18.512 -35.583 1.657 164 136 112
-18.496 -35.540 1.658 97 65 52
-18.487 -35.494 1.657 190 161 147
-18.475 -35.449 1.656 174 147 130
-18.462 -35.405 1.656 178 151 132
-18.448 -35.360 1.655 174 147 130
-18.433 -35.316 1.654 99 66 57
-18.419 -35.271 1.653 104 71 64
-18.397 -35.230 1.654 123 89 77
-18.384 -35.184 1.652 120 79 51
-18.367 -35.139 1.651 123 81 65
-18.345 -35.098 1.650 144 105 106
-18.322 -35.056 1.650 126 86 84
-18.297 -35.016 1.650 140 89 86
-18.272 -34.976 1.649 133 79 77
-18.250 -34.934 1.648 142 91 88
-18.223 -34.894 1.648 200 151 147
-18.197 -34.854 1.647 163 105 104
-18.168 -34.817 1.646 125 77 75
-18.140 -34.778 1.646 178 139 132
-18.118 -34.732 1.643 230 180 169
-18.087 -34.695 1.642 137 79 78
-18.056 -34.658 1.641 135 79 80
-18.024 -34.621 1.640 172 121 120
-17.992 -34.584 1.639 169 121 117
-17.959 -34.547 1.638 177 148 142
-17.927 -34.509 1.636 174 147 136
-17.893 -34.472 1.634 182 152 141
-17.859 -34.435 1.633 106 72 63
-17.821 -34.403 1.632 84 56 53
-17.782 -34.371 1.631 109 83 56
-17.749 -34.330 1.628 198 178 151
-17.706 -34.304 1.627 155 151 139
-17.661 -34.281 1.628 176 164 152
-17.618 -34.254 1.627 148 147 127
-17.572 -34.234 1.627 161 156 136
-17.529 -34.207 1.626 147 136 116
-17.484 -34.185 1.626 160 155 135
-17.438 -34.163 1.625 153 140 123
-17.392 -34.143 1.624 166 161 141
-17.345 -34.121 1.624 159 151 132
-17.301 -34.094 1.621 162 156 140
-17.254 -34.071 1.620 160 157 138
-17.206 -34.053 1.619 146 139 120
-17.156 -34.037 1.618 165 160 138
-17.106 -34.025 1.618 156 158 134
-17.057 -34.008 1.616 172 159 143
-17.007 -33.993 1.615 160 159 141
-16.956 -33.985 1.615 161 133 121
-16.904 -33.974 1.614 165 163 140
-16.852 -33.971 1.614 172 157 136
-16.801 -33.954 1.612 65 46 31
-16.749 -33.956 1.612 45 41 30
-16.696 -30.264 0.842 29 6 12
-16.553 -30.263 0.841 33 14 16
-16.412 -30.289 0.846 28 12 15
-16.271 -30.319 0.850 39 16 24
-16.135 -30.384 0.860 37 15 18
-16.000 -30.441 0.869 34 9 12
-15.891 -30.655 0.908 40 15 18
-16.383 -34.281 1.636 229 219 220
-16.291 -34.047 1.587 223 227 228
-15.457 -30.567 0.875 21 26 30
-15.319 -30.586 0.872 20 24 35
-15.189 -30.638 0.876 20 24 33
-15.063 -30.700 0.881 19 26 36
-14.928 -30.734 0.879 18 22 31
-15.103 -31.632 1.059 38 39 41
-15.978 -34.223 1.603 118 118 116
-15.861 -34.068 1.566 184 186 181
-15.819 -34.107 1.569 176 178 173
-15.831 -34.257 1.598 162 167 161
-15.860 -34.424 1.630 124 129 125
-15.851 -34.504 1.643 102 104 99
-15.872 -34.630 1.667 70 75 68
-15.881 -34.725 1.685 36 41 34
-15.861 -34.766 1.689 42 43 37
-15.841 -34.805 1.694 25 27 24
-15.825 -34.848 1.699 23 25 22
-15.804 -34.882 1.702 49 51 46
-15.773 -34.903 1.702 39 45 41
-15.744 -34.925 1.701 20 28 15
-15.422 -34.608 1.612 200 202 201
-14.843 -34.040 1.451 222 218 207
-14.756 -34.048 1.440 225 219 205
-14.688 -34.077 1.435 229 222 214
-14.615 -34.104 1.428 228 223 204
-14.542 -34.133 1.422 224 224 200
-14.460 -34.157 1.412 176 179 160
-14.388 -34.191 1.406 197 202 180
-14.331 -34.239 1.403 206 204 183
-14.287 -34.299 1.403 212 211 193
-14.250 -34.362 1.405 212 208 197
-14.205 -34.421 1.404 214 205 196
-14.162 -34.481 1.403 201 195 183
-14.128 -34.546 1.404 185 179 167
-14.102 -34.616 1.407 173 169 158
-14.075 -34.684 1.409 171 167 155
-14.035 -34.746 1.407 183 179 167
-13.975 -34.798 1.401 197 193 181
-13.972 -34.878 1.407 205 201 189
-14.033 -34.983 1.427 211 212 198
-14.496 -35.237 1.531 207 208 190
-11.242 -34.134 0.848 108 105 100
-11.027 -34.213 0.812 28 23 19
-10.969 -34.348 0.810 100 92 81
-10.918 -34.487 0.807 98 91 75
-10.872 -34.627 0.806 95 86 71
-10.832 -34.769 0.804 94 83 77
-10.796 -34.912 0.803 81 72 67
-10.766 -35.057 0.803 98 89 84
-10.739 -35.202 0.802 95 86 79
-10.722 -35.349 0.803 64 55 48
-10.696 -35.495 0.801 99 90 81
-10.673 -35.641 0.799 99 91 78
-10.664 -35.789 0.799 104 96 83
-10.649 -35.937 0.797 107 99 88
-10.631 -36.086 0.793 108 107 102
-10.608 -36.235 0.789 80 80 78
-9.395 -36.444 0.546 81 83 82
-9.355 -36.627 0.536 76 78 77
-9.366 -36.808 0.535 71 75 76
-10.149 -36.893 0.688 72 73 68
-10.829 -36.956 0.820 116 112 101
-10.899 -37.092 0.830 116 112 101
-10.958 -37.227 0.836 122 115 105
-11.022 -37.360 0.843 122 115 105
-11.106 -37.486 0.854 128 121 111
-11.182 -37.612 0.862 112 105 95
-11.265 -37.733 0.871 121 114 104
-11.346 -37.853 0.879 124 117 107
-11.430 -37.970 0.887 125 118 108
-11.517 -38.084 0.896 110 103 93
-11.607 -38.194 0.904 123 119 110
-11.706 -38.298 0.914 116 112 100
-11.816 -38.394 0.926 118 112 100
-11.934 -38.483 0.939 117 114 105
-14.143 -37.451 1.424 29 29 21
-14.869 -37.121 1.582 90 84 70
-15.528 -36.786 1.729 218 207 185
-15.545 -36.815 1.729 234 226 203
-15.559 -36.846 1.728 242 231 209
-15.571 -36.878 1.726 222 211 193
-15.585 -36.910 1.725 103 95 84
-15.602 -36.940 1.724 47 44 37
-15.618 -36.971 1.722 86 91 87
-15.631 -37.005 1.720 41 32 27
-15.654 -37.031 1.720 255 252 240
-15.676 -37.057 1.720 189 170 153
-15.696 -37.086 1.719 178 167 147
-15.721 -37.111 1.719 193 178 159
-15.744 -37.136 1.718 150 137 120
-15.768 -37.162 1.717 189 177 161
-15.791 -37.188 1.716 128 119 112
-15.818 -37.211 1.716 35 31 28
-15.843 -37.236 1.715 47 41 41
-15.869 -37.260 1.714 161 152 143
-15.895 -37.286 1.713 127 114 98
-15.920 -37.311 1.711 162 166 143
-15.947 -37.337 1.710 166 144 131
-15.975 -37.358 1.709 111 119 96
-16.007 -37.376 1.709 163 152 132
-16.039 -37.393 1.709 157 141 125
-16.069 -37.412 1.708 167 166 148
-16.101 -37.430 1.708 119 126 110
-16.134 -37.444 1.708 110 113 104
-16.166 -37.460 1.707 162 160 147
-16.199 -37.477 1.706 145 143 122
-16.232 -37.493 1.705 143 142 124
-16.265 -37.509 1.704 142 130 114
-16.299 -37.521 1.704 153 140 123
-16.333 -37.535 1.703 132 121 101
-16.367 -37.553 1.701 168 155 136
-16.402 -37.564 1.700 145 130 109
-16.439 -37.569 1.701 133 125 104
-16.475 -37.577 1.700 127 120 102
-16.512 -37.585 1.700 107 98 81
-16.548 -37.593 1.699 127 117 105
-16.585 -37.598 1.698 118 104 91
-16.622 -37.608 1.697 111 100 82
-16.658 -37.641 1.691 97 90 74
-16.696 -37.761 1.667 123 133 108
-16.736 -37.713 1.676 87 100 83
-16.770 -37.577 1.703 119 121 110
-16.804 -37.543 1.709 99 95 84
-16.838 -37.521 1.713 83 75 64
-16.871 -37.499 1.717 125 113 101
-16.902 -37.474 1.721 141 124 114
-16.933 -37.449 1.725 172 162 150
-16.962 -37.422 1.729 164 154 144
-16.990 -37.393 1.733 168 159 144
-17.017 -37.365 1.738 172 165 147
-17.043 -37.336 1.742 169 163 141
-17.068 -37.311 1.745 172 160 144
-17.092 -37.284 1.749 163 157 143
-17.118 -37.265 1.751 181 172 155
-17.158 -37.283 1.745 183 166 146
-17.257 -37.440 1.708 110 99 77
-17.352 -37.565 1.678 226 219 191
-17.379 -37.530 1.682 82 83 87
-17.416 -37.515 1.682 41 49 68
-17.453 -37.501 1.681 59 69 81
-17.493 -37.493 1.678 70 73 80
-17.546 -37.503 1.671 244 235 206
-17.585 -37.489 1.669 57 46 28
-17.620 -37.468 1.669 84 56 52
-17.657 -37.449 1.668 76 65 59
-17.693 -37.429 1.667 58 58 48
-17.730 -37.410 1.666 116 88 87
-17.765 -37.387 1.665 36 21 14
-17.799 -37.364 1.664 62 54 41
-17.835 -37.341 1.663 187 201 212
-17.866 -37.314 1.663 35 79 126
-17.897 -37.286 1.662 31 83 140
-17.930 -37.260 1.661 26 75 131
-17.960 -37.231 1.661 31 82 139
-17.988 -37.200 1.661 26 78 136
-18.019 -37.171 1.660 26 89 140
-18.055 -37.146 1.657 27 67 119
-18.089 -37.119 1.655 236 255 255
-18.116 -37.085 1.655 24 66 126
-18.142 -37.052 1.654 16 71 127
-18.169 -37.018 1.653 18 69 122
-18.193 -36.983 1.653 17 68 121
-18.217 -36.947 1.652 18 71 125
-18.244 -36.913 1.651 13 76 120
-18.266 -36.876 1.650 18 73 140
-18.286 -36.838 1.650 20 53 72
-18.318 -36.805 1.647 205 198 172
-18.331 -36.763 1.648 69 55 54
-18.357 -36.726 1.646 58 45 36
-18.382 -36.689 1.644 43 34 29
-18.402 -36.649 1.643 45 23 26
-18.422 -36.609 1.641 35 32 27
-18.437 -36.567 1.641 111 75 79
-18.456 -36.526 1.639 60 60 50
-18.470 -36.484 1.638 134 95 100
-18.482 -36.441 1.638 96 93 86
-18.492 -36.397 1.637 151 136 131
-18.504 -36.354 1.636 149 138 132
-18.515 -36.310 1.636 193 165 164
-18.523 -36.266 1.635 164 168 151
-18.529 -36.221 1.635 178 166 152
-18.535 -36.176 1.634 163 161 146
-18.546 -36.131 1.632 127 103 103
-18.551 -36.086 1.631 96 104 106
-18.560 -36.040 1.629 209 201 165
-18.555 -35.994 1.630 41 57 91
-18.550 -35.949 1.630 40 48 59
-18.552 -35.903 1.629 31 50 67
-18.550 -35.857 1.629 37 55 69
-18.547 -35.811 1.628 69 86 94
-18.542 -35.766 1.627 24 37 43
-18.535 -35.720 1.627 70 71 89
-18.528 -35.674 1.627 43 55 55
-18.525 -35.628 1.625 50 56 46
-18.519 -35.581 1.624 143 140 105
-18.503 -35.538 1.625 119 112 102
-18.493 -35.492 1.624 80 73 63
-18.480 -35.447 1.623 86 82 70
-18.468 -35.403 1.622 104 101 86
-18.454 -35.358 1.622 104 97 81
-18.439 -35.313 1.621 96 87 72
-18.424 -35.269 1.620 93 83 71
-18.406 -35.225 1.619 83 73 61
-18.391 -35.180 1.618 75 63 39
-18.374 -35.136 1.617 102 95 79
-18.349 -35.095 1.617 62 61 56
-18.327 -35.053 1.616 69 65 56
-18.304 -35.011 1.615 69 66 57
-18.281 -34.969 1.614 66 66 54
-18.261 -34.926 1.613 167 168 152
-18.229 -34.890 1.613 155 154 133
-18.202 -34.850 1.613 172 167 147
-18.179 -34.807 1.611 158 166 145
-18.153 -34.766 1.609 157 160 141
-18.125 -34.725 1.608 133 129 84
-18.102 -34.680 1.605 160 162 141
-18.067 -34.647 1.605 159 162 141
-18.039 -34.605 1.602 162 165 144
-18.006 -34.567 1.601 158 160 139
-17.968 -34.537 1.601 160 153 137
-17.933 -34.501 1.600 170 161 146
-17.899 -34.464 1.598 166 159 141
-17.867 -34.423 1.595 166 161 142
-17.828 -34.392 1.595 167 150 132
-17.786 -34.365 1.595 163 157 131
-17.752 -34.324 1.591 208 191 161
-17.711 -34.294 1.590 154 155 147
-17.667 -34.270 1.590 160 158 135
-17.623 -34.245 1.590 169 153 137
-17.578 -34.221 1.590 166 166 142
-17.533 -34.199 1.590 162 143 126
-17.489 -34.173 1.588 160 159 139
-17.442 -34.152 1.588 169 154 133
-17.395 -34.133 1.588 153 151 128
-17.349 -34.109 1.586 157 151 127
-17.303 -34.085 1.584 166 160 134
-17.256 -34.064 1.583 159 158 140
-17.208 -34.044 1.581 156 143 124
-17.158 -34.030 1.581 175 168 142
-17.106 -34.024 1.582 178 182 157
-17.058 -34.000 1.579 166 153 137
-17.008 -33.988 1.578 171 168 151
-16.956 -33.977 1.577 156 128 116
-16.905 -33.971 1.577 202 194 173
-16.853 -33.962 1.576 222 214 193
-16.801 -33.949 1.574 68 41 30
-16.749 -33.948 1.575 27 35 22
-16.696 -30.260 0.742 32 10 13
-16.553 -30.261 0.742 31 12 14
-16.412 -30.288 0.746 29 13 16
-16.271 -30.324 0.752 34 13 20
-16.136 -30.395 0.765 29 12 18
-16.003 -30.460 0.776 33 14 18
-15.898 -30.702 0.825 47 31 34
-16.292 -33.757 1.489 58 56 59
-15.673 -30.940 0.867 16 21 25
-15.452 -30.545 0.774 16 21 27
-15.316 -30.574 0.773 11 15 24
-15.188 -30.634 0.778 16 20 29
-15.059 -30.688 0.782 17 21 30
-14.935 -30.754 0.787 16 23 31
-14.820 -30.843 0.797 29 36 44
-15.635 -33.335 1.363 37 44 50
-15.679 -33.630 1.426 55 64 69
-15.621 -33.660 1.427 56 65 70
-15.559 -33.681 1.426 83 92 97
-15.500 -33.709 1.425 58 67 72
-15.445 -33.744 1.427 60 67 73
-15.388 -33.776 1.427 61 71 73
-15.331 -33.808 1.426 34 46 46
-15.277 -33.844 1.427 168 174 174
-15.270 -33.951 1.445 67 77 78
-15.236 -34.012 1.452 79 89 88
-15.181 -34.042 1.451 114 123 120
-15.101 -34.041 1.440 149 163 163
-14.942 -33.948 1.403 117 127 129
-14.868 -33.966 1.395 114 123 118
-14.793 -33.985 1.388 117 123 123
-14.723 -34.013 1.382 107 111 112
-14.643 -34.033 1.373 113 117 103
-14.541 -34.034 1.357 169 174 154
-14.460 -34.059 1.348 169 170 164
-14.400 -34.105 1.345 132 131 127
-14.357 -34.166 1.346 159 159 151
-14.310 -34.223 1.346 192 182 173
-14.271 -34.287 1.348 191 188 183
-14.231 -34.350 1.349 196 197 183
-14.189 -34.410 1.349 205 199 185
-14.149 -34.472 1.349 213 207 195
-14.104 -34.532 1.347 205 199 187
-14.076 -34.601 1.350 206 200 188
-14.049 -34.671 1.352 207 201 189
-14.012 -34.734 1.351 205 199 187
-13.971 -34.797 1.349 201 195 183
-13.910 -34.851 1.342 203 197 185
-13.779 -34.877 1.318 205 198 190
-13.815 -34.974 1.333 199 195 183
-11.181 -34.112 0.735 73 69 68
-11.038 -34.216 0.713 35 31 28
-10.976 -34.350 0.709 101 94 84
-10.926 -34.489 0.707 99 92 82
-10.883 -34.630 0.706 99 93 81
-10.845 -34.772 0.705 97 90 82
-10.811 -34.915 0.704 88 81 75
-10.781 -35.059 0.703 99 92 86
-10.754 -35.204 0.702 93 86 80
-10.736 -35.351 0.703 60 53 47
-10.707 -35.496 0.700 95 88 78
-10.690 -35.643 0.699 100 94 82
-10.679 -35.790 0.699 105 99 87
-10.668 -35.938 0.698 103 97 85
-10.657 -36.086 0.696 93 92 88
-10.618 -36.235 0.687 80 80 78
-9.410 -36.444 0.424 71 73 72
-9.373 -36.626 0.414 71 75 76
-9.378 -36.807 0.412 69 73 76
-10.469 -36.854 0.645 75 74 72
-10.850 -36.953 0.724 120 113 105
-10.917 -37.089 0.733 118 114 103
-10.978 -37.223 0.741 115 108 98
-11.033 -37.357 0.746 121 114 104
-11.107 -37.486 0.756 124 117 107
-11.182 -37.612 0.764 119 112 102
-11.263 -37.734 0.774 127 120 110
-11.343 -37.854 0.782 123 116 106
-11.428 -37.971 0.791 126 119 109
-11.515 -38.084 0.801 120 113 103
-11.606 -38.194 0.810 118 114 105
-11.710 -38.296 0.822 124 118 106
-11.820 -38.392 0.835 121 115 103
-11.966 -38.467 0.856 105 102 95
-12.773 -38.183 1.039 79 79 77
-13.009 -38.175 1.085 44 39 33
-15.479 -36.815 1.693 147 135 121
-15.539 -36.819 1.704 236 223 206
-15.560 -36.845 1.705 238 226 204
-15.571 -36.878 1.703 121 110 92
-15.584 -36.911 1.701 160 154 142
-15.600 -36.941 1.700 139 136 129
-15.614 -36.974 1.698 208 203 199
-15.629 -37.007 1.695 125 114 108
-15.647 -37.036 1.694 110 96 85
-15.670 -37.063 1.694 206 198 177
-15.691 -37.091 1.693 234 221 202
-15.715 -37.116 1.693 211 198 181
-15.740 -37.141 1.692 236 224 208
-15.765 -37.165 1.692 122 113 98
-15.793 -37.187 1.692 180 176 167
-15.820 -37.209 1.692 53 53 51
-15.846 -37.233 1.692 60 58 59
-15.871 -37.258 1.690 73 69 60
-15.895 -37.285 1.688 184 165 151
-15.920 -37.311 1.687 235 228 209
-15.946 -37.338 1.685 255 235 223
-15.973 -37.362 1.683 214 206 187
-16.004 -37.382 1.683 254 237 227
-16.035 -37.400 1.682 134 119 114
-16.068 -37.414 1.683 165 153 155
-16.102 -37.428 1.683 71 60 68
-16.134 -37.444 1.682 44 52 55
-16.165 -37.463 1.681 49 54 47
-16.199 -37.476 1.681 250 241 224
-16.233 -37.488 1.681 239 223 210
-16.266 -37.505 1.680 230 223 207
-16.299 -37.521 1.678 212 209 192
-16.334 -37.534 1.677 196 195 177
-16.367 -37.550 1.676 184 189 169
-16.403 -37.559 1.676 136 133 126
-16.441 -37.557 1.677 39 37 38
-16.477 -37.562 1.678 49 48 53
-16.513 -37.571 1.677 59 57 60
-16.549 -37.581 1.675 204 196 193
-16.586 -37.588 1.675 126 113 104
-16.622 -37.595 1.674 149 136 119
-16.659 -37.607 1.671 159 151 132
-16.696 -37.651 1.662 201 200 180
-16.734 -37.601 1.673 61 58 53
-16.769 -37.563 1.681 111 102 93
-16.804 -37.538 1.686 140 128 116
-16.837 -37.518 1.689 129 119 107
-16.871 -37.499 1.693 151 137 124
-16.902 -37.473 1.697 104 87 77
-16.933 -37.449 1.701 91 78 69
-16.962 -37.423 1.705 94 86 75
-16.990 -37.393 1.711 57 49 38
-17.017 -37.364 1.715 76 68 57
-17.042 -37.335 1.720 158 150 137
-17.067 -37.309 1.724 177 167 155
-17.092 -37.284 1.728 151 143 130
-17.117 -37.262 1.730 167 158 143
-17.156 -37.276 1.724 175 157 143
-17.277 -37.487 1.672 91 44 38
-17.357 -37.575 1.648 128 70 59
-17.389 -37.549 1.650 128 69 73
-17.429 -37.542 1.648 60 7 13
-17.468 -37.529 1.647 88 49 44
-17.507 -37.517 1.645 88 45 55
-17.553 -37.515 1.640 74 31 22
-17.590 -37.497 1.639 91 51 51
-17.623 -37.472 1.640 96 55 61
-17.660 -37.454 1.639 88 54 52
-17.696 -37.434 1.637 121 92 88
-17.733 -37.413 1.636 147 107 107
-17.768 -37.391 1.635 143 108 112
-17.803 -37.368 1.634 155 119 119
-17.838 -37.345 1.633 247 222 217
-17.870 -37.319 1.632 63 51 51
-17.902 -37.292 1.632 101 91 99
-17.935 -37.265 1.630 92 82 91
-17.966 -37.237 1.630 58 52 62
-17.995 -37.206 1.630 90 87 96
-18.026 -37.176 1.629 71 73 72
-18.059 -37.149 1.627 71 65 77
-18.092 -37.121 1.625 241 239 216
-18.119 -37.088 1.624 67 77 86
-18.147 -37.055 1.623 48 67 84
-18.173 -37.021 1.622 45 63 85
-18.200 -36.987 1.621 48 69 90
-18.225 -36.952 1.620 48 70 93
-18.251 -36.917 1.619 47 70 86
-18.274 -36.880 1.619 49 69 104
-18.299 -36.844 1.617 61 71 72
-18.328 -36.809 1.615 230 210 183
-18.338 -36.766 1.616 35 22 14
-18.361 -36.728 1.615 31 21 11
-18.386 -36.690 1.612 31 26 23
-18.404 -36.650 1.611 61 42 46
-18.422 -36.609 1.611 44 39 36
-18.437 -36.567 1.610 103 72 77
-18.454 -36.526 1.609 52 49 42
-18.466 -36.483 1.608 109 72 80
-18.480 -36.440 1.607 29 26 19
-18.492 -36.397 1.606 118 100 96
-18.502 -36.354 1.606 30 36 24
-18.511 -36.310 1.605 76 55 52
-18.519 -36.265 1.604 55 36 32
-18.525 -36.221 1.604 84 61 55
-18.531 -36.176 1.603 66 69 52
-18.543 -36.131 1.601 59 40 36
-18.550 -36.086 1.600 42 31 35
-18.558 -36.040 1.598 210 199 177
-18.556 -35.994 1.598 20 66 126
-18.553 -35.949 1.598 16 66 115
-18.556 -35.903 1.596 15 67 124
-18.554 -35.857 1.596 15 65 116
-18.551 -35.811 1.595 20 68 117
-18.547 -35.765 1.594 16 62 112
-18.541 -35.719 1.594 21 62 126
-18.535 -35.673 1.593 19 66 110
-18.533 -35.626 1.591 60 78 102
-18.527 -35.579 1.590 201 194 150
-18.512 -35.535 1.590 213 196 170
-18.504 -35.489 1.589 221 204 178
-18.490 -35.444 1.589 223 206 178
-18.475 -35.399 1.588 233 216 188
-18.461 -35.355 1.587 227 211 186
-18.447 -35.310 1.587 234 219 196
-18.433 -35.264 1.585 232 217 194
-18.415 -35.221 1.584 225 210 187
-18.398 -35.176 1.583 209 190 158
-18.379 -35.133 1.582 210 194 168
-18.356 -35.091 1.582 193 182 164
-18.334 -35.049 1.581 181 170 148
-18.311 -35.007 1.580 167 156 134
-18.290 -34.963 1.579 146 135 115
-18.268 -34.920 1.577 135 124 102
-18.236 -34.884 1.578 170 159 137
-18.216 -34.838 1.575 111 99 75
-18.186 -34.801 1.575 102 95 66
-18.159 -34.760 1.574 109 92 74
-18.132 -34.719 1.572 137 140 113
-18.107 -34.675 1.569 134 145 149
-18.076 -34.636 1.568 143 153 155
-18.042 -34.601 1.567 155 163 166
-18.009 -34.564 1.566 161 169 171
-17.975 -34.528 1.565 160 167 160
-17.938 -34.495 1.564 160 166 156
-17.905 -34.456 1.562 155 161 147
-17.872 -34.417 1.559 158 162 147
-17.832 -34.386 1.558 160 153 143
-17.789 -34.360 1.559 154 149 127
-17.753 -34.322 1.556 217 188 148
-17.714 -34.290 1.554 152 159 151
-17.668 -34.267 1.555 152 156 133
-17.625 -34.240 1.554 169 152 136
-17.581 -34.215 1.553 161 163 141
-17.536 -34.192 1.553 164 142 128
-17.490 -34.169 1.552 161 163 142
-17.444 -34.148 1.551 172 156 131
-17.396 -34.131 1.552 159 157 134
-17.350 -34.108 1.550 163 157 135
-17.304 -34.084 1.548 167 157 130
-17.256 -34.065 1.547 160 154 138
-17.208 -34.042 1.545 161 143 123
-17.158 -34.030 1.545 167 155 131
-17.108 -34.017 1.544 157 157 133
-17.059 -33.997 1.542 120 104 88
-17.008 -33.986 1.542 101 96 77
-16.957 -33.977 1.541 180 148 135
-16.905 -33.968 1.540 153 140 124
-16.853 -33.960 1.540 120 115 96
-16.801 -33.950 1.538 66 36 28
-16.749 -33.945 1.538 31 39 28
-16.696 -30.250 0.639 33 11 14
-16.553 -30.258 0.641 35 13 16
-16.412 -30.291 0.647 35 19 22
-16.272 -30.338 0.656 28 13 18
-16.138 -30.421 0.673 23 13 22
-16.007 -30.493 0.686 18 7 11
-15.965 -31.157 0.838 51 41 39
-16.201 -33.233 1.325 37 43 43
-15.591 -30.528 0.679 16 24 27
-15.452 -30.543 0.675 16 21 27
-15.317 -30.580 0.677 13 17 26
-15.187 -30.633 0.681 16 20 29
-15.058 -30.684 0.684 19 23 32
-14.937 -30.760 0.692 15 22 30
-14.815 -30.827 0.698 15 25 34
-15.329 -32.541 1.114 2 15 24
-15.673 -33.614 1.376 51 64 72
-15.612 -33.640 1.376 41 54 62
-15.548 -33.657 1.374 54 67 75
-15.491 -33.691 1.375 49 62 70
-15.435 -33.725 1.376 53 63 72
-15.380 -33.762 1.377 50 65 72
-15.323 -33.795 1.377 49 64 69
-15.262 -33.821 1.375 66 75 80
-15.200 -33.846 1.372 164 175 179
-15.136 -33.870 1.368 34 44 45
-15.061 -33.881 1.360 139 150 146
-14.988 -33.897 1.353 130 146 146
-14.923 -33.925 1.348 114 133 140
-14.849 -33.944 1.340 116 144 130
-14.778 -33.969 1.334 129 155 146
-14.689 -33.977 1.321 86 98 88
-14.502 -33.892 1.277 223 217 191
-14.408 -33.907 1.263 54 51 0
-14.398 -34.003 1.277 55 52 9
-14.360 -34.070 1.281 57 57 7
-14.323 -34.138 1.284 42 43 12
-14.286 -34.205 1.287 204 195 154
-14.258 -34.278 1.292 185 177 164
-14.224 -34.344 1.295 195 196 190
-14.179 -34.404 1.294 198 192 178
-14.141 -34.468 1.295 198 192 180
-14.106 -34.533 1.296 197 191 179
-14.079 -34.603 1.299 197 191 179
-14.052 -34.672 1.301 201 195 183
-14.018 -34.738 1.301 203 197 185
-13.982 -34.802 1.300 207 201 189
-13.940 -34.864 1.297 204 198 186
-13.884 -34.921 1.290 196 185 179
-13.862 -34.992 1.292 192 185 177
-11.165 -34.107 0.630 70 65 69
-11.054 -34.222 0.614 69 61 58
-10.989 -34.354 0.609 100 92 81
-10.938 -34.492 0.607 85 76 67
-10.898 -34.633 0.606 95 88 80
-10.862 -34.776 0.606 90 87 78
-10.827 -34.918 0.605 88 81 75
-10.798 -35.062 0.604 88 81 75
-10.771 -35.207 0.603 91 84 78
-10.753 -35.353 0.604 66 59 53
-10.725 -35.498 0.601 98 91 81
-10.709 -35.644 0.600 97 91 79
-10.696 -35.791 0.599 98 92 80
-10.684 -35.938 0.598 109 103 91
-10.672 -36.086 0.595 59 58 54
-10.563 -36.236 0.570 75 75 75
-9.429 -36.443 0.303 68 69 71
-9.389 -36.625 0.292 72 76 79
-9.394 -36.805 0.289 62 66 69
-10.537 -36.845 0.553 78 77 75
-10.873 -36.950 0.627 120 113 105
-10.935 -37.085 0.637 110 106 95
-10.993 -37.220 0.644 113 106 96
-11.044 -37.355 0.649 116 109 99
-11.114 -37.484 0.658 125 118 108
-11.185 -37.611 0.667 118 111 101
-11.264 -37.734 0.676 118 111 101
-11.342 -37.855 0.685 119 112 102
-11.427 -37.971 0.695 115 108 98
-11.515 -38.085 0.705 119 112 102
-11.605 -38.195 0.715 118 114 105
-11.709 -38.296 0.728 123 117 105
-11.816 -38.394 0.741 131 125 113
-11.999 -38.450 0.774 102 99 92
-12.702 -38.221 0.944 122 124 121
-12.945 -38.211 0.995 152 151 147
-13.449 -38.032 1.117 129 120 115
-15.506 -36.840 1.671 255 237 227
-15.555 -36.848 1.680 255 237 225
-15.568 -36.880 1.678 255 238 227
-15.579 -36.914 1.676 248 224 214
-15.593 -36.947 1.674 239 216 208
-15.603 -36.983 1.670 200 181 175
-15.612 -37.021 1.666 169 188 168
-15.633 -37.049 1.665 164 144 133
-15.660 -37.073 1.666 140 133 114
-15.681 -37.101 1.665 136 120 104
-15.706 -37.126 1.665 150 138 122
-15.732 -37.150 1.665 130 121 106
-15.761 -37.170 1.666 89 81 68
-15.790 -37.190 1.667 137 133 122
-15.819 -37.211 1.667 95 88 80
-15.845 -37.234 1.667 59 52 46
-15.871 -37.258 1.666 75 71 59
-15.894 -37.286 1.663 80 62 50
-15.920 -37.312 1.661 235 219 203
-15.943 -37.342 1.658 245 239 217
-15.967 -37.373 1.655 228 210 190
-15.997 -37.395 1.654 237 214 200
-16.029 -37.412 1.654 58 53 34
-16.065 -37.420 1.656 152 146 134
-16.100 -37.431 1.657 99 100 92
-16.131 -37.451 1.655 119 117 120
-16.161 -37.475 1.653 157 152 148
-16.194 -37.489 1.653 155 152 135
-16.231 -37.495 1.654 229 227 204
-16.265 -37.509 1.653 234 238 215
-16.298 -37.527 1.651 216 211 191
-16.332 -37.539 1.651 238 222 206
-16.365 -37.561 1.647 191 181 171
-16.403 -37.560 1.649 73 69 66
-16.442 -37.554 1.652 70 71 73
-16.478 -37.558 1.653 82 87 93
-16.514 -37.566 1.652 67 71 74
-16.550 -37.574 1.651 113 112 110
-16.586 -37.584 1.650 204 195 188
-16.622 -37.593 1.648 247 235 219
-16.659 -37.606 1.645 221 213 194
-16.696 -37.627 1.641 202 200 185
-16.734 -37.600 1.647 83 82 80
-16.769 -37.563 1.655 208 206 194
-16.804 -37.538 1.660 166 164 143
-16.838 -37.519 1.664 117 109 96
-16.871 -37.501 1.667 127 114 98
-16.902 -37.473 1.673 115 99 83
-16.933 -37.449 1.677 98 85 76
-16.962 -37.422 1.682 116 110 98
-16.989 -37.391 1.688 144 138 126
-17.015 -37.360 1.694 94 84 75
-17.041 -37.329 1.699 85 72 66
-17.065 -37.302 1.704 57 47 38
-17.090 -37.276 1.708 69 63 51
-17.116 -37.260 1.709 73 64 55
-17.163 -37.295 1.698 60 43 36
-17.298 -37.537 1.634 116 68 66
-17.354 -37.569 1.622 122 67 62
-17.395 -37.562 1.619 120 64 67
-17.438 -37.558 1.616 121 64 55
-17.482 -37.556 1.611 136 86 27
-17.525 -37.549 1.608 234 190 85
-17.566 -37.536 1.606 198 148 111
-17.599 -37.512 1.606 112 70 54
-17.629 -37.482 1.609 98 58 50
-17.665 -37.460 1.608 115 64 61
-17.700 -37.439 1.607 125 69 68
-17.736 -37.417 1.606 96 51 46
-17.772 -37.397 1.605 101 61 62
-17.805 -37.371 1.604 109 68 66
-17.839 -37.347 1.603 115 68 62
-17.872 -37.321 1.602 118 64 62
-17.904 -37.293 1.602 119 68 64
-17.938 -37.268 1.600 109 59 52
-17.971 -37.241 1.599 112 59 53
-18.002 -37.212 1.598 117 64 58
-18.035 -37.184 1.596 121 63 61
-18.066 -37.155 1.595 96 50 53
-18.098 -37.125 1.593 92 64 60
-18.125 -37.092 1.592 52 34 24
-18.154 -37.060 1.591 65 56 51
-18.181 -37.026 1.590 47 42 36
-18.209 -36.992 1.589 34 31 26
-18.236 -36.958 1.588 31 30 26
-18.261 -36.922 1.586 54 46 35
-18.284 -36.885 1.585 55 51 50
-18.309 -36.848 1.584 89 89 79
-18.336 -36.813 1.582 142 125 107
-18.344 -36.768 1.584 148 136 124
-18.365 -36.729 1.583 162 153 138
-18.388 -36.691 1.581 131 130 128
-18.405 -36.650 1.580 137 118 122
-18.421 -36.609 1.580 124 119 116
-18.436 -36.567 1.579 119 108 106
-18.452 -36.526 1.578 76 67 58
-18.463 -36.482 1.578 101 81 80
-18.480 -36.441 1.576 36 28 26
-18.492 -36.397 1.575 105 69 79
-18.501 -36.353 1.575 31 30 28
-18.510 -36.309 1.574 77 50 57
-18.515 -36.265 1.574 41 18 24
-18.519 -36.220 1.574 73 46 51
-18.524 -36.176 1.573 54 44 42
-18.535 -36.131 1.571 79 37 49
-18.545 -36.086 1.569 52 37 34
-18.559 -36.040 1.565 192 185 166
-18.555 -35.994 1.566 53 61 84
-18.552 -35.949 1.566 49 59 84
-18.555 -35.903 1.565 55 60 98
-18.554 -35.857 1.564 49 61 99
-18.550 -35.811 1.563 45 58 100
-18.547 -35.765 1.562 44 58 103
-18.541 -35.719 1.561 45 69 113
-18.535 -35.673 1.561 31 66 98
-18.536 -35.625 1.558 53 57 86
-18.533 -35.578 1.556 227 203 165
-18.520 -35.533 1.556 225 199 164
-18.509 -35.487 1.555 227 201 164
-18.495 -35.442 1.555 226 201 161
-18.481 -35.397 1.554 226 201 160
-18.468 -35.352 1.553 225 202 168
-18.454 -35.306 1.552 223 200 169
-18.440 -35.261 1.550 222 199 168
-18.425 -35.216 1.549 223 200 169
-18.405 -35.172 1.548 219 199 162
-18.387 -35.128 1.547 211 191 158
-18.365 -35.085 1.546 222 199 168
-18.347 -35.041 1.544 221 199 162
-18.325 -34.998 1.543 220 198 161
-18.299 -34.957 1.543 220 197 163
-18.275 -34.915 1.542 217 194 163
-18.249 -34.874 1.541 176 157 127
-18.223 -34.833 1.539 217 196 167
-18.198 -34.790 1.538 219 196 154
-18.165 -34.754 1.538 218 188 162
-18.135 -34.716 1.537 120 127 119
-18.107 -34.676 1.535 24 62 107
-18.078 -34.634 1.533 22 65 110
-18.046 -34.597 1.532 19 59 108
-18.012 -34.561 1.530 21 61 112
-17.978 -34.525 1.529 22 63 117
-17.943 -34.488 1.528 21 60 115
-17.906 -34.454 1.526 24 61 114
-17.870 -34.420 1.525 27 60 111
-17.832 -34.387 1.524 21 59 108
-17.790 -34.359 1.524 39 63 73
-17.755 -34.319 1.520 213 188 148
-17.713 -34.291 1.519 145 151 137
-17.670 -34.265 1.519 146 151 129
-17.626 -34.238 1.518 157 141 126
-17.582 -34.214 1.517 154 157 136
-17.537 -34.190 1.517 158 139 125
-17.491 -34.167 1.516 157 158 140
-17.444 -34.149 1.516 179 163 140
-17.397 -34.129 1.515 180 177 160
-17.350 -34.108 1.514 187 180 164
-17.304 -34.083 1.512 177 164 147
-17.256 -34.064 1.511 181 174 166
-17.208 -34.042 1.509 177 158 144
-17.158 -34.032 1.509 189 176 159
-17.108 -34.017 1.508 152 145 127
-17.059 -33.996 1.505 110 92 80
-17.008 -33.985 1.505 98 94 82
-16.957 -33.976 1.504 76 39 33
-16.905 -33.966 1.503 55 40 35
-16.853 -33.963 1.504 41 37 28
-16.801 -33.948 1.501 65 34 32
-16.749 -33.947 1.501 23 29 19
-16.696 -30.246 0.537 36 14 17
-16.553 -30.253 0.538 41 16 20
-16.412 -30.291 0.547 35 16 20
-16.273 -30.349 0.559 20 14 16
-16.141 -30.445 0.580 10 13 18
-16.016 -30.573 0.609 51 50 46
-16.351 -33.756 1.410 225 217 206
-15.858 -31.256 0.772 19 18 14
-15.590 -30.522 0.579 4 7 12
-15.454 -30.551 0.579 18 23 29
-15.320 -30.591 0.581 12 16 25
-15.189 -30.640 0.585 14 18 27
-15.061 -30.693 0.588 16 23 33
-14.943 -30.778 0.600 12 16 25
-14.824 -30.852 0.608 26 31 37
-15.385 -32.686 1.087 11 16 20
-15.657 -33.576 1.320 162 168 168
-15.595 -33.602 1.320 180 186 186
-15.532 -33.623 1.318 181 187 187
-15.472 -33.653 1.318 149 155 155
-15.418 -33.695 1.321 94 99 102
-15.366 -33.737 1.324 43 51 53
-15.312 -33.777 1.326 45 55 54
-15.252 -33.805 1.324 32 34 33
-15.178 -33.813 1.315 151 153 148
-15.103 -33.823 1.307 106 107 99
-15.035 -33.845 1.301 102 104 93
-14.968 -33.871 1.296 78 83 76
-14.909 -33.908 1.294 56 65 48
-14.845 -33.939 1.290 102 112 113
-14.731 -33.918 1.267 199 202 155
-14.471 -33.749 1.192 232 198 137
-14.408 -33.797 1.189 187 123 77
-14.369 -33.870 1.195 151 107 10
-14.366 -33.973 1.212 121 96 42
-14.340 -34.053 1.221 93 84 79
-14.310 -34.127 1.227 62 60 82
-14.282 -34.202 1.233 162 153 110
-14.257 -34.277 1.239 184 175 144
-14.228 -34.347 1.244 190 185 181
-14.191 -34.412 1.245 192 186 172
-14.153 -34.475 1.246 192 186 174
-14.119 -34.541 1.247 191 185 173
-14.091 -34.610 1.250 192 186 174
-14.061 -34.677 1.252 194 188 176
-14.027 -34.742 1.251 196 190 178
-13.990 -34.806 1.250 195 189 177
-13.960 -34.873 1.250 198 192 180
-13.911 -34.932 1.245 196 190 178
-13.803 -34.970 1.223 196 194 181
-11.173 -34.110 0.531 82 78 79
-11.070 -34.227 0.516 103 89 80
-11.006 -34.360 0.510 94 78 53
-10.953 -34.496 0.507 101 85 69
-10.912 -34.637 0.506 105 95 86
-10.877 -34.779 0.506 101 92 85
-10.842 -34.921 0.505 101 94 88
-10.814 -35.065 0.504 68 61 55
-10.788 -35.209 0.504 95 88 82
-10.771 -35.355 0.505 62 55 49
-10.745 -35.500 0.502 91 84 74
-10.729 -35.646 0.501 96 90 78
-10.717 -35.792 0.500 105 99 87
-10.703 -35.939 0.498 94 88 76
-10.689 -36.086 0.495 23 22 20
-10.465 -36.239 0.439 80 80 82
-9.450 -36.442 0.183 73 74 78
-9.408 -36.623 0.169 70 73 78
-9.414 -36.803 0.167 67 71 74
-10.558 -36.843 0.451 85 84 82
-10.888 -36.947 0.529 117 110 102
-10.950 -37.083 0.539 113 109 98
-11.006 -37.218 0.547 116 109 99
-11.056 -37.352 0.552 115 108 98
-11.124 -37.482 0.561 126 119 109
-11.193 -37.609 0.570 122 115 105
-11.268 -37.732 0.579 120 113 103
-11.345 -37.854 0.588 121 114 104
-11.431 -37.970 0.599 117 110 100
-11.518 -38.083 0.610 117 110 100
-11.605 -38.194 0.620 119 115 106
-11.707 -38.297 0.633 120 114 102
-11.807 -38.398 0.645 114 108 96
-12.005 -38.447 0.684 117 114 107
-12.780 -38.179 0.888 123 125 112
-12.974 -38.194 0.928 126 129 118
-13.075 -38.256 0.942 207 208 203
-14.869 -37.243 1.458 170 163 157
-15.526 -36.868 1.647 164 144 135
-15.553 -36.891 1.650 189 165 155
-15.563 -36.927 1.646 152 130 117
-15.569 -36.966 1.642 213 194 180
-15.571 -37.009 1.635 247 244 239
-15.580 -37.049 1.631 144 210 183
-15.602 -37.077 1.630 255 251 244
-15.625 -37.106 1.630 202 199 180
-15.647 -37.135 1.628 217 195 182
-15.672 -37.162 1.628 237 219 207
-15.699 -37.186 1.628 245 228 218
-15.732 -37.204 1.630 254 237 227
-15.764 -37.222 1.632 248 234 223
-15.796 -37.240 1.633 173 156 146
-15.826 -37.260 1.634 230 213 203
-15.855 -37.281 1.634 255 247 235
-15.882 -37.305 1.633 252 255 239
-15.907 -37.332 1.631 255 244 228
-15.931 -37.364 1.627 250 217 202
-15.952 -37.400 1.622 195 67 82
-15.979 -37.427 1.619 163 38 52
-16.009 -37.451 1.617 177 81 85
-16.040 -37.473 1.616 158 32 44
-16.071 -37.496 1.613 167 29 45
-16.101 -37.522 1.611 151 30 49
-16.133 -37.546 1.608 179 62 80
-16.170 -37.557 1.609 157 41 50
-16.209 -37.562 1.611 151 30 35
-16.247 -37.567 1.612 156 46 47
-16.286 -37.569 1.615 169 64 60
-16.324 -37.573 1.616 175 90 83
-16.360 -37.585 1.615 212 174 165
-16.398 -37.584 1.617 197 187 177
-16.438 -37.572 1.622 171 166 160
-16.476 -37.572 1.624 152 151 147
-16.513 -37.575 1.624 121 118 113
-16.549 -37.579 1.624 159 159 151
-16.585 -37.590 1.622 87 83 72
-16.622 -37.601 1.620 213 204 189
-16.659 -37.612 1.618 234 224 212
-16.696 -37.624 1.615 192 180 168
-16.734 -37.600 1.621 100 84 85
-16.769 -37.563 1.629 128 118 109
-16.804 -37.539 1.635 178 171 155
-16.838 -37.524 1.638 118 110 99
-16.872 -37.506 1.641 119 106 89
-16.903 -37.478 1.647 124 109 88
-16.934 -37.452 1.653 165 153 141
-16.963 -37.424 1.658 90 86 75
-16.989 -37.390 1.665 102 96 84
-17.015 -37.357 1.672 118 108 96
-17.039 -37.325 1.678 105 91 78
-17.063 -37.293 1.684 173 165 154
-17.088 -37.272 1.687 37 33 24
-17.118 -37.265 1.686 60 53 47
-17.174 -37.324 1.668 193 177 177
-17.266 -37.461 1.627 105 63 67
-17.342 -37.542 1.601 112 63 67
-17.393 -37.558 1.592 111 60 69
-17.443 -37.568 1.584 128 73 53
-17.497 -37.584 1.574 232 193 62
-17.545 -37.583 1.569 224 194 48
-17.583 -37.564 1.568 123 88 48
-17.614 -37.535 1.570 229 205 219
-17.644 -37.504 1.573 89 56 51
-17.678 -37.479 1.573 109 69 67
-17.714 -37.458 1.572 139 104 100
-17.751 -37.437 1.571 255 233 226
-17.789 -37.417 1.569 100 67 62
-17.821 -37.390 1.569 255 240 234
-17.855 -37.364 1.568 121 97 93
-17.887 -37.337 1.567 93 62 60
-17.916 -37.306 1.568 255 245 246
-17.948 -37.277 1.567 113 74 75
-17.978 -37.247 1.567 97 48 51
-18.006 -37.216 1.567 120 61 65
-18.036 -37.185 1.566 117 56 71
-18.068 -37.156 1.564 110 60 59
-18.099 -37.126 1.563 102 67 73
-18.127 -37.093 1.562 84 68 52
-18.155 -37.060 1.561 102 83 76
-18.185 -37.028 1.559 110 93 77
-18.214 -36.995 1.557 88 72 57
-18.240 -36.960 1.555 85 71 58
-18.266 -36.925 1.554 87 70 63
-18.288 -36.887 1.554 81 75 63
-18.314 -36.851 1.552 107 107 95
-18.341 -36.815 1.549 134 121 105
-18.349 -36.770 1.552 122 105 89
-18.368 -36.730 1.551 56 43 27
-18.388 -36.691 1.550 35 31 30
-18.406 -36.651 1.549 44 19 23
-18.423 -36.609 1.548 50 38 38
-18.439 -36.568 1.547 41 48 40
-18.456 -36.527 1.546 53 40 32
-18.471 -36.484 1.544 56 52 41
-18.511 -36.447 1.537 238 225 209
-18.516 -36.401 1.537 164 84 87
-18.528 -36.357 1.536 174 116 112
-18.542 -36.313 1.534 218 150 149
-18.548 -36.268 1.534 223 183 173
-18.552 -36.223 1.534 247 194 186
-18.555 -36.177 1.534 247 209 200
-18.562 -36.132 1.533 255 229 229
-18.567 -36.086 1.532 222 223 209
-18.581 -36.039 1.528 247 239 226
-18.574 -35.993 1.529 255 230 213
-18.574 -35.947 1.528 229 236 205
-18.576 -35.901 1.527 228 211 201
-18.576 -35.854 1.526 208 194 185
-18.571 -35.808 1.525 184 175 166
-18.567 -35.761 1.525 158 155 146
-18.559 -35.715 1.524 137 111 114
-18.549 -35.670 1.524 110 95 88
-18.542 -35.623 1.523 132 109 115
-18.539 -35.576 1.521 212 182 158
-18.522 -35.532 1.522 228 207 190
-18.510 -35.487 1.522 235 217 195
-18.495 -35.442 1.521 229 211 187
-18.482 -35.397 1.520 230 213 187
-18.470 -35.351 1.519 230 214 178
-18.457 -35.305 1.518 227 209 171
-18.442 -35.260 1.516 220 202 164
-18.427 -35.215 1.515 220 202 164
-18.412 -35.169 1.513 218 209 180
-18.396 -35.123 1.511 231 217 190
-18.372 -35.081 1.511 219 198 169
-18.350 -35.039 1.510 218 198 165
-18.328 -34.996 1.509 221 197 163
-18.305 -34.953 1.507 221 196 165
-18.280 -34.911 1.506 215 194 163
-18.251 -34.873 1.506 173 157 124
-18.225 -34.832 1.505 217 193 165
-18.198 -34.790 1.503 217 198 156
-18.170 -34.750 1.502 213 186 156
-18.141 -34.710 1.500 133 129 104
-18.112 -34.670 1.498 43 66 97
-18.081 -34.632 1.497 35 65 99
-18.049 -34.594 1.496 33 66 101
-18.015 -34.557 1.494 34 68 106
-17.980 -34.522 1.493 31 65 111
-17.945 -34.486 1.492 29 65 115
-17.908 -34.451 1.490 24 59 113
-17.868 -34.422 1.490 25 60 116
-17.832 -34.387 1.488 28 59 106
-17.792 -34.355 1.487 53 75 88
-17.759 -34.312 1.482 206 187 154
-17.714 -34.290 1.483 151 154 145
-17.670 -34.265 1.483 146 149 128
-17.626 -34.238 1.482 164 148 135
-17.583 -34.212 1.481 154 159 139
-17.539 -34.185 1.479 154 136 124
-17.493 -34.163 1.479 165 165 153
-17.445 -34.145 1.479 107 89 77
-17.398 -34.124 1.478 34 30 21
-17.351 -34.105 1.478 27 17 15
-17.305 -34.081 1.475 31 20 14
-17.256 -34.063 1.474 23 21 24
-17.209 -34.040 1.472 22 7 4
-17.159 -34.024 1.471 32 21 15
-17.110 -34.009 1.470 29 22 16
-17.059 -33.995 1.468 33 15 15
-17.008 -33.982 1.467 12 11 7
-16.957 -33.970 1.466 33 0 2
-16.905 -33.964 1.466 21 12 15
-16.853 -33.958 1.466 13 15 10
-16.801 -33.949 1.464 75 51 51
-16.749 -33.957 1.467 17 27 18
-16.696 -30.240 0.434 48 13 20
-16.553 -30.246 0.435 43 12 18
-16.412 -30.288 0.445 36 16 18
-16.274 -30.356 0.461 26 17 18
-16.143 -30.469 0.488 38 46 48
-16.052 -30.859 0.589 20 26 24
-16.259 -33.140 1.202 225 225 217
-15.820 -31.032 0.626 37 28 19
-15.603 -30.590 0.499 215 217 214
-15.455 -30.558 0.482 10 18 21
-15.322 -30.598 0.484 11 18 26
-15.191 -30.645 0.487 11 18 24
-15.062 -30.699 0.492 12 23 27
-14.948 -30.794 0.507 17 26 31
-14.853 -30.934 0.534 105 108 113
-15.639 -33.344 1.213 36 37 32
-15.639 -33.533 1.260 150 149 145
-15.576 -33.558 1.259 156 155 153
-15.513 -33.583 1.258 190 190 188
-15.453 -33.615 1.259 163 165 162
-15.397 -33.655 1.261 86 88 85
-15.340 -33.691 1.262 180 182 177
-15.282 -33.727 1.263 173 176 169
-15.221 -33.755 1.261 171 171 163
-15.144 -33.762 1.251 235 229 215
-15.074 -33.782 1.245 244 236 223
-15.006 -33.807 1.240 239 230 221
-14.938 -33.833 1.234 236 230 218
-14.878 -33.870 1.232 234 226 215
-14.815 -33.905 1.228 240 233 223
-14.622 -33.797 1.172 227 207 138
-14.450 -33.726 1.127 176 94 56
-14.418 -33.807 1.137 180 109 77
-14.373 -33.873 1.140 213 151 76
-14.356 -33.965 1.154 186 147 54
-14.342 -34.055 1.167 115 101 92
-14.319 -34.135 1.176 75 79 142
-14.289 -34.207 1.182 105 98 82
-14.263 -34.281 1.188 201 186 153
-14.247 -34.361 1.197 181 172 165
-14.216 -34.429 1.201 183 174 167
-14.180 -34.492 1.202 182 177 158
-14.145 -34.556 1.203 177 176 158
-14.114 -34.623 1.205 181 172 163
-14.082 -34.688 1.206 178 166 166
-14.045 -34.751 1.204 177 167 155
-14.018 -34.819 1.206 190 181 164
-13.996 -34.889 1.208 185 176 167
-13.956 -34.951 1.205 190 188 173
-13.500 -34.853 1.082 186 186 174
-11.183 -34.113 0.431 84 81 76
-11.083 -34.231 0.416 112 100 88
-11.022 -34.364 0.411 86 70 47
-10.968 -34.500 0.407 114 98 82
-10.928 -34.641 0.407 87 74 65
-10.892 -34.782 0.406 83 74 69
-10.855 -34.924 0.404 79 74 70
-10.828 -35.067 0.404 50 45 41
-10.805 -35.212 0.404 93 83 81
-10.783 -35.356 0.404 87 77 75
-10.764 -35.501 0.403 90 81 74
-10.748 -35.647 0.402 94 85 78
-10.738 -35.793 0.401 95 88 80
-10.725 -35.939 0.399 104 100 91
-10.708 -36.086 0.395 2 2 0
-10.080 -36.248 0.227 77 78 80
-9.467 -36.441 0.061 71 72 74
-9.435 -36.621 0.049 78 79 83
-9.440 -36.800 0.046 72 72 72
-10.581 -36.840 0.349 90 89 84
-10.906 -36.945 0.432 106 104 92
-10.967 -37.080 0.442 111 107 96
-11.020 -37.215 0.449 111 104 94
-11.071 -37.349 0.455 113 106 96
-11.137 -37.478 0.464 128 121 111
-11.204 -37.606 0.473 118 111 101
-11.278 -37.729 0.483 118 114 103
-11.356 -37.850 0.493 115 111 100
-11.441 -37.966 0.504 114 110 99
-11.525 -38.080 0.515 111 107 96
-11.610 -38.193 0.525 120 118 105
-11.704 -38.299 0.537 114 108 96
-11.795 -38.404 0.547 116 109 99
-11.991 -38.454 0.588 106 103 98
-12.875 -38.128 0.839 188 191 182
-12.997 -38.181 0.861 183 186 175
-13.079 -38.254 0.870 171 175 161
-13.148 -38.333 0.874 85 87 74
-15.422 -36.938 1.589 208 198 199
-15.476 -36.945 1.600 229 222 212
-15.496 -36.976 1.599 240 235 213
-15.516 -37.007 1.599 255 243 234
-15.520 -37.051 1.592 191 190 185
-15.520 -37.100 1.584 114 137 121
-15.539 -37.134 1.582 255 249 243
-15.553 -37.174 1.577 204 197 189
-15.577 -37.205 1.576 155 140 133
-15.605 -37.232 1.576 186 173 165
-15.636 -37.256 1.577 194 183 177
-15.674 -37.270 1.581 185 174 170
-15.714 -37.282 1.585 208 198 188
-15.755 -37.292 1.590 208 198 189
-15.791 -37.306 1.593 215 206 201
-15.825 -37.324 1.594 163 156 146
-15.855 -37.345 1.594 227 228 214
-15.881 -37.374 1.591 255 255 241
-15.903 -37.409 1.586 252 234 220
-15.928 -37.442 1.582 175 110 108
-15.956 -37.471 1.579 216 122 123
-15.983 -37.503 1.575 195 114 111
-16.009 -37.540 1.569 213 144 137
-16.033 -37.582 1.561 231 165 151
-16.059 -37.625 1.554 150 97 93
-16.093 -37.649 1.551 55 13 15
-16.138 -37.647 1.556 172 61 68
-16.183 -37.639 1.562 201 41 53
-16.226 -37.635 1.566 195 55 58
-16.268 -37.634 1.570 150 56 48
-16.306 -37.644 1.569 235 202 183
-16.345 -37.652 1.570 185 179 165
-16.386 -37.644 1.574 223 213 204
-16.428 -37.630 1.580 234 224 215
-16.469 -37.621 1.584 224 213 207
-16.508 -37.611 1.588 226 212 209
-16.547 -37.606 1.591 198 192 178
-16.584 -37.611 1.590 209 201 190
-16.621 -37.617 1.589 215 201 198
-16.659 -37.621 1.589 210 195 188
-16.696 -37.627 1.587 212 177 175
-16.734 -37.612 1.591 91 44 50
-16.770 -37.584 1.598 71 30 36
-16.805 -37.562 1.603 56 30 31
-16.840 -37.543 1.608 121 110 108
-16.873 -37.521 1.612 128 114 105
-16.905 -37.489 1.620 127 114 95
-16.934 -37.456 1.627 111 105 91
-16.962 -37.421 1.635 116 112 100
-16.989 -37.388 1.642 127 121 107
-17.015 -37.358 1.649 177 165 149
-17.040 -37.329 1.654 88 73 54
-17.069 -37.313 1.656 51 44 36
-17.098 -37.300 1.657 64 61 56
-17.131 -37.300 1.655 153 149 146
-17.885 -39.166 1.115 53 48 45
-19.120 -41.937 0.303 165 159 159
-19.431 -42.254 0.192 175 171 170
-19.594 -42.212 0.184 173 169 168
-19.742 -42.136 0.185 163 156 148
-19.881 -42.044 0.190 144 132 108
-20.025 -41.962 0.190 148 134 121
-20.031 -41.650 0.262 158 147 141
-19.096 -39.875 0.798 137 129 127
-18.157 -38.271 1.296 155 146 141
-17.778 -37.622 1.497 185 174 170
-17.773 -37.537 1.516 219 208 206
-17.791 -37.488 1.523 243 232 230
-17.822 -37.458 1.524 84 72 74
-17.855 -37.429 1.525 160 154 156
-17.890 -37.403 1.524 116 110 110
-17.923 -37.374 1.523 126 121 117
-17.950 -37.340 1.525 169 155 154
-17.973 -37.301 1.528 243 222 221
-17.996 -37.263 1.530 99 60 61
-18.021 -37.228 1.531 113 57 60
-18.045 -37.192 1.533 114 53 60
-18.073 -37.160 1.532 104 51 45
-18.105 -37.131 1.530 107 84 68
-18.134 -37.098 1.529 90 84 62
-18.160 -37.064 1.528 99 85 84
-18.190 -37.031 1.526 94 84 75
-18.216 -36.997 1.525 84 79 75
-18.241 -36.961 1.524 89 84 80
-18.265 -36.924 1.523 102 88 77
-18.287 -36.886 1.523 92 86 74
-18.315 -36.851 1.520 137 133 121
-18.338 -36.813 1.519 137 118 101
-18.348 -36.770 1.521 99 82 66
-18.367 -36.730 1.520 71 57 44
-18.386 -36.690 1.519 78 64 61
-18.404 -36.650 1.518 45 27 27
-18.422 -36.609 1.517 50 40 38
-18.439 -36.568 1.516 71 68 61
-18.457 -36.527 1.514 87 74 66
-18.476 -36.485 1.511 79 69 57
-18.524 -36.449 1.501 255 222 208
-18.534 -36.405 1.500 187 41 51
-18.546 -36.360 1.499 179 35 35
-18.559 -36.316 1.497 181 37 36
-18.568 -36.270 1.496 180 41 36
-18.575 -36.224 1.495 182 35 43
-18.581 -36.178 1.494 178 40 38
-18.588 -36.132 1.493 161 57 66
-18.592 -36.086 1.492 212 173 176
-18.594 -36.039 1.491 235 171 187
-18.597 -35.992 1.490 154 48 58
-18.598 -35.945 1.489 160 32 33
-18.601 -35.898 1.487 173 38 45
-18.604 -35.850 1.485 177 36 45
-18.602 -35.803 1.484 176 41 48
-18.599 -35.756 1.483 170 44 48
-18.590 -35.709 1.483 169 39 47
-18.580 -35.663 1.483 173 37 37
-18.564 -35.618 1.484 163 122 130
-18.543 -35.575 1.487 227 196 167
-18.522 -35.532 1.489 35 32 23
-18.508 -35.487 1.489 47 23 21
-18.494 -35.443 1.488 69 60 53
-18.482 -35.397 1.487 69 61 48
-18.471 -35.351 1.485 79 64 57
-18.457 -35.305 1.484 57 34 28
-18.443 -35.260 1.482 71 54 46
-18.428 -35.214 1.481 65 60 54
-18.414 -35.168 1.478 132 125 107
-18.398 -35.122 1.476 234 226 207
-18.371 -35.082 1.477 63 54 39
-18.346 -35.041 1.477 33 20 4
-18.322 -35.000 1.476 34 30 18
-18.299 -34.957 1.475 58 41 34
-18.276 -34.914 1.473 80 62 52
-18.252 -34.871 1.471 179 166 150
-18.223 -34.833 1.471 72 56 33
-18.194 -34.794 1.470 85 78 59
-18.166 -34.753 1.468 105 93 69
-18.142 -34.709 1.465 89 72 44
-18.110 -34.672 1.464 74 62 46
-18.080 -34.633 1.462 60 47 31
-18.047 -34.595 1.461 88 72 59
-18.014 -34.558 1.459 84 72 58
-17.979 -34.523 1.458 98 84 71
-17.945 -34.486 1.456 96 89 73
-17.908 -34.452 1.455 99 87 73
-17.870 -34.419 1.454 107 95 81
-17.833 -34.385 1.452 89 81 79
-17.793 -34.354 1.451 217 214 207
-17.759 -34.313 1.446 192 177 148
-17.713 -34.291 1.447 147 146 128
-17.669 -34.266 1.447 144 153 132
-17.626 -34.238 1.446 162 146 133
