ply
format ascii 1.0
element vertex 1478
property float x
property float y
property float z
property uchar red
property uchar green
property uchar blue
end_header
-0.722 23.951 -9.276 109 104 98
-0.644 24.112 -9.269 104 99 93
-0.562 24.270 -9.262 109 104 98
-0.477 24.427 -9.259 111 106 100
-0.390 24.582 -9.255 105 100 94
-0.296 24.734 -9.248 100 95 89
-0.199 24.883 -9.241 106 101 95
-0.097 25.029 -9.232 107 102 96
0.007 25.173 -9.225 107 102 96
0.115 25.314 -9.219 110 105 99
0.226 25.452 -9.211 106 101 95
0.340 25.588 -9.205 107 102 96
0.458 25.720 -9.197 106 103 96
0.579 25.850 -9.189 105 102 95
0.703 25.977 -9.183 104 101 94
0.830 26.100 -9.174 102 99 92
0.960 26.220 -9.167 104 101 94
1.092 26.337 -9.160 101 98 91
1.228 26.450 -9.153 101 98 91
1.366 26.560 -9.145 95 95 87
1.506 26.667 -9.138 105 102 95
1.649 26.770 -9.132 104 99 93
1.794 26.870 -9.126 106 99 93
1.941 26.966 -9.119 101 96 90
2.091 27.059 -9.113 103 100 93
2.243 27.148 -9.107 100 97 90
2.397 27.233 -9.101 97 97 89
2.552 27.315 -9.096 96 96 88
2.710 27.391 -9.088 100 100 92
2.870 27.464 -9.081 95 95 87
3.031 27.533 -9.074 94 94 86
3.194 27.597 -9.066 90 90 82
3.359 27.656 -9.056 92 92 84
3.525 27.710 -9.045 91 91 83
3.693 27.760 -9.033 87 87 79
3.861 27.808 -9.026 86 86 78
4.030 27.851 -9.017 78 78 70
4.200 27.888 -9.005 80 80 72
4.371 27.922 -8.995 85 85 77
4.543 27.949 -8.981 83 82 77
4.716 27.971 -8.965 83 82 77
4.889 27.987 -8.947 78 79 73
5.062 27.996 -8.925 75 78 71
5.235 28.002 -8.904 78 83 77
5.408 28.005 -8.885 58 63 59
5.581 28.007 -8.872 33 37 36
5.753 27.996 -8.845 12 16 17
5.925 30.221 -12.820 106 107 93
6.152 30.266 -12.897 109 109 97
6.380 30.271 -12.919 111 111 101
6.608 30.266 -12.934 106 107 99
6.836 30.257 -12.950 108 110 107
7.064 30.246 -12.974 96 98 97
7.292 30.226 -12.991 65 67 66
7.515 30.171 -12.961 83 85 84
7.733 30.096 -12.905 109 108 103
7.952 30.035 -12.883 115 112 107
8.169 29.965 -12.854 99 96 91
8.391 29.917 -12.869 126 123 118
8.609 29.853 -12.869 122 119 112
8.821 29.773 -12.849 136 133 126
9.032 29.689 -12.832 142 139 132
9.243 29.609 -12.830 146 143 136
9.453 29.525 -12.830 153 150 145
10.803 32.011 -17.360 152 149 144
12.962 35.885 -24.470 154 151 146
14.736 38.510 -29.516 153 150 145
15.231 38.416 -29.748 155 154 149
15.680 38.227 -29.830 157 156 151
16.125 38.024 -29.908 156 155 150
16.549 37.783 -29.937 156 155 150
16.967 37.531 -29.962 157 157 149
17.375 37.263 -29.979 158 158 150
17.782 36.993 -30.009 160 160 152
18.182 36.711 -30.038 160 160 152
18.571 36.415 -30.057 159 160 152
18.944 36.098 -30.053 157 160 151
19.311 35.775 -30.056 158 161 152
19.682 35.455 -30.084 156 159 150
20.049 35.129 -30.122 152 155 148
20.408 34.795 -30.160 152 154 149
20.758 34.450 -30.195 152 154 151
21.103 34.098 -30.236 151 153 150
21.434 33.733 -30.264 152 151 149
21.753 33.358 -30.288 154 153 151
22.065 32.975 -30.315 153 152 150
22.358 32.579 -30.323 153 152 150
22.641 32.175 -30.331 152 152 150
22.906 31.759 -30.324 153 155 152
23.156 31.333 -30.307 155 157 154
23.394 30.901 -30.288 153 155 152
23.617 30.462 -30.261 154 155 150
23.824 30.015 -30.226 154 155 150
24.019 29.563 -30.189 153 154 149
24.197 29.105 -30.143 152 153 148
24.353 28.639 -30.078 152 153 147
24.498 28.169 -30.013 153 154 148
24.629 27.698 -29.946 151 152 146
24.753 27.225 -29.888 157 158 152
24.867 26.751 -29.833 158 159 154
24.967 26.275 -29.773 158 159 154
25.059 25.798 -29.722 159 160 155
25.150 25.322 -29.686 159 160 155
25.239 24.847 -29.669 159 161 156
25.326 24.372 -29.666 159 161 156
25.402 23.894 -29.665 160 162 157
25.473 23.416 -29.675 160 162 157
25.539 22.937 -29.695 160 162 159
25.599 22.456 -29.726 160 162 159
25.651 21.974 -29.761 160 162 159
25.690 21.490 -29.794 160 162 159
25.712 21.005 -29.822 160 162 157
25.726 20.519 -29.854 161 163 158
25.728 20.032 -29.884 160 162 157
25.711 19.546 -29.906 160 162 157
25.676 19.060 -29.916 160 162 159
25.618 18.576 -29.910 159 161 158
25.545 18.095 -29.897 161 163 160
25.457 17.616 -29.880 161 163 160
25.352 17.141 -29.854 160 162 159
25.232 16.670 -29.822 160 162 159
25.094 16.203 -29.779 162 164 161
24.943 15.742 -29.733 160 162 159
24.777 15.286 -29.682 160 162 159
24.597 14.836 -29.625 161 163 160
24.404 14.393 -29.563 162 164 161
24.198 13.956 -29.496 162 164 161
23.980 13.526 -29.428 161 163 158
23.756 13.101 -29.366 161 163 158
23.525 12.681 -29.310 161 163 158
23.286 12.266 -29.257 163 165 160
23.036 11.859 -29.202 162 164 161
22.779 11.457 -29.151 162 164 161
22.516 11.060 -29.107 164 166 163
22.252 10.666 -29.079 164 166 163
21.988 10.272 -29.067 165 167 164
21.714 9.885 -29.057 165 167 164
21.433 9.503 -29.050 165 167 164
21.146 9.126 -29.050 165 167 164
20.856 8.751 -29.064 164 169 165
20.562 8.379 -29.086 161 167 163
20.254 8.018 -29.100 160 166 162
19.933 7.668 -29.104 160 166 162
19.602 7.328 -29.106 161 167 163
19.263 6.995 -29.109 160 166 162
18.914 6.673 -29.106 158 164 160
18.554 6.364 -29.093 157 163 159
18.182 6.070 -29.071 155 161 159
17.800 5.788 -29.042 154 160 158
17.415 5.511 -29.020 152 158 156
17.037 5.226 -29.036 152 158 156
16.651 4.952 -29.047 153 157 158
16.245 4.708 -29.021 66 71 74
15.835 4.471 -28.999 65 73 76
15.407 4.266 -28.938 69 76 82
14.966 4.090 -28.844 62 68 68
14.510 3.949 -28.706 158 162 161
14.077 3.769 -28.662 155 159 158
13.648 3.582 -28.648 157 161 160
13.212 3.412 -28.623 158 158 156
12.770 3.259 -28.587 158 158 156
12.322 3.125 -28.539 159 159 157
11.867 3.016 -28.467 162 162 160
11.417 2.897 -28.430 160 160 158
10.966 2.786 -28.399 161 161 159
10.507 2.710 -28.330 161 161 159
10.038 2.687 -28.191 160 160 158
9.558 2.740 -27.948 158 159 154
9.022 3.155 -27.135 160 160 158
7.888 7.771 -19.514 160 162 159
7.128 11.249 -13.808 149 153 152
6.813 11.981 -12.583 143 147 146
6.579 12.133 -12.306 126 131 125
6.357 12.201 -12.175 133 136 129
6.140 12.237 -12.104 121 122 117
5.925 12.229 -12.114 113 115 112
5.709 12.235 -12.107 46 51 47
5.500 12.363 -11.914 113 115 110
5.292 12.431 -11.826 114 115 110
5.080 12.435 -11.848 112 113 108
4.855 12.332 -12.053 48 50 47
4.613 12.166 -12.369 69 73 72
4.377 12.086 -12.557 85 89 92
4.153 12.099 -12.603 43 47 50
3.949 12.210 -12.497 17 21 24
3.766 12.389 -12.284 42 46 47
3.601 12.609 -12.010 98 102 103
3.441 12.817 -11.760 114 116 111
3.266 12.957 -11.630 114 115 110
3.077 13.048 -11.591 107 108 103
2.830 12.983 -11.826 102 103 98
2.525 12.798 -12.286 26 30 29
2.342 12.924 -12.216 25 29 30
2.161 13.048 -12.156 19 23 26
1.981 13.171 -12.104 30 33 38
1.814 13.315 -12.022 27 34 42
1.656 13.470 -11.927 29 38 47
1.515 13.648 -11.794 26 35 44
1.400 13.860 -11.600 66 75 84
1.294 14.076 -11.402 59 68 75
1.194 14.288 -11.212 63 70 76
1.131 14.542 -10.940 64 69 75
1.017 14.717 -10.827 65 68 73
0.881 14.859 -10.786 66 69 74
0.743 14.998 -10.757 66 69 76
0.605 15.136 -10.738 64 67 74
0.465 15.271 -10.732 64 67 74
0.328 15.409 -10.728 70 75 81
-0.195 15.179 -11.589 48 53 59
-0.340 15.327 -11.597 11 16 22
-0.512 15.453 -11.669 23 28 34
-0.619 15.635 -11.613 26 30 39
-0.717 15.822 -11.547 36 40 49
-0.663 16.120 -11.188 53 57 66
-0.724 16.323 -11.077 67 71 80
-0.817 16.500 -11.039 59 63 72
-1.037 16.597 -11.251 28 35 43
-1.226 16.719 -11.407 28 35 45
-1.334 16.893 -11.416 31 38 48
-1.437 17.070 -11.424 24 33 40
-1.504 17.266 -11.375 24 31 39
-1.078 17.693 -10.457 65 72 78
-1.113 17.886 -10.379 68 73 79
-1.159 18.071 -10.330 68 73 79
-1.210 18.253 -10.297 67 72 78
-1.254 18.437 -10.260 65 70 76
-1.296 18.620 -10.229 68 73 79
-1.336 18.803 -10.201 68 71 76
-1.372 18.986 -10.175 69 72 77
-1.403 19.170 -10.147 70 73 78
-1.427 19.354 -10.116 70 73 78
-1.445 19.539 -10.084 68 73 77
-1.462 19.723 -10.056 64 72 75
-1.477 19.907 -10.033 65 73 76
-1.490 20.091 -10.014 65 73 76
-1.498 20.274 -9.994 69 73 74
-1.502 20.457 -9.976 73 74 76
-1.502 20.640 -9.958 80 80 80
-1.498 20.823 -9.940 105 104 100
-1.491 21.005 -9.926 107 104 99
-1.479 21.187 -9.910 105 102 97
-1.463 21.368 -9.894 104 101 96
-1.441 21.548 -9.876 107 104 99
-1.414 21.728 -9.858 105 102 95
-1.385 21.907 -9.843 105 102 95
-1.349 22.084 -9.825 108 105 98
-1.309 22.260 -9.807 106 103 96
-1.266 22.435 -9.790 112 107 101
-1.221 22.610 -9.777 101 98 91
-1.175 22.783 -9.769 95 92 85
-1.125 22.956 -9.763 95 95 87
-1.070 23.127 -9.755 96 91 85
-1.009 23.296 -9.743 106 101 95
-0.945 23.463 -9.733 110 105 99
-0.880 23.630 -9.728 105 100 94
-0.811 23.795 -9.724 107 102 96
-0.737 23.958 -9.719 106 101 95
-0.659 24.119 -9.712 106 101 95
-0.578 24.278 -9.707 106 101 95
-0.494 24.436 -9.704 105 100 94
-0.407 24.592 -9.702 106 101 95
-0.314 24.744 -9.696 106 101 95
-0.216 24.893 -9.688 105 100 94
-0.114 25.040 -9.679 98 95 88
-0.010 25.184 -9.672 102 99 92
0.098 25.327 -9.666 102 99 92
0.209 25.465 -9.659 109 106 99
0.323 25.602 -9.652 99 96 89
0.442 25.735 -9.644 105 102 95
0.563 25.864 -9.636 101 98 91
0.688 25.991 -9.628 101 98 91
0.816 26.114 -9.618 105 102 95
0.946 26.234 -9.611 100 97 90
1.079 26.351 -9.603 104 101 94
1.215 26.465 -9.595 100 97 90
1.354 26.575 -9.587 97 97 89
1.495 26.681 -9.579 98 95 88
1.637 26.786 -9.574 94 89 83
1.782 26.887 -9.570 105 98 92
1.930 26.984 -9.563 102 97 91
2.080 27.076 -9.557 100 97 90
2.232 27.166 -9.551 100 97 90
2.386 27.251 -9.545 98 98 90
2.542 27.333 -9.538 97 97 89
2.701 27.410 -9.531 93 93 85
2.861 27.483 -9.524 93 93 85
3.022 27.552 -9.517 93 93 85
3.187 27.615 -9.506 92 92 84
3.352 27.673 -9.493 89 89 81
3.519 27.727 -9.481 89 89 81
3.687 27.777 -9.468 89 89 81
3.856 27.825 -9.460 83 83 75
4.025 27.868 -9.450 86 86 78
4.196 27.904 -9.437 90 90 82
4.368 27.935 -9.423 89 89 81
4.541 27.962 -9.407 82 82 72
4.713 27.985 -9.392 88 85 76
4.887 28.003 -9.376 90 87 78
5.060 28.013 -9.355 87 84 75
5.234 28.019 -9.335 73 73 63
5.407 28.022 -9.315 78 78 68
5.580 28.022 -9.298 78 78 68
5.753 28.011 -9.269 76 76 68
5.925 38.084 -26.494 145 145 135
6.345 38.146 -26.607 147 147 139
6.813 39.081 -28.195 151 152 147
7.418 41.245 -31.861 150 152 151
7.963 41.706 -32.704 45 54 53
8.470 41.642 -32.692 39 49 50
8.970 41.534 -32.625 51 61 62
9.461 41.386 -32.512 49 59 60
9.934 41.163 -32.290 81 81 79
10.385 40.867 -31.962 149 148 144
10.853 40.683 -31.844 155 154 150
11.327 40.529 -31.798 155 154 150
11.793 40.350 -31.728 157 157 149
12.256 40.170 -31.674 155 155 147
12.711 39.972 -31.609 155 155 147
13.161 39.764 -31.545 156 156 148
13.605 39.548 -31.486 158 157 152
14.048 39.332 -31.446 158 157 153
14.487 39.109 -31.412 161 160 156
14.926 38.888 -31.403 162 161 157
15.365 38.667 -31.412 175 176 170
15.800 38.438 -31.428 176 177 171
16.231 38.200 -31.447 173 174 168
16.657 37.953 -31.469 171 172 166
17.077 37.695 -31.490 167 168 160
17.492 37.429 -31.516 165 166 158
17.900 37.152 -31.539 171 172 164
18.304 36.868 -31.571 171 172 164
18.702 36.574 -31.603 172 172 164
19.089 36.266 -31.625 173 173 165
19.466 35.945 -31.641 174 174 166
19.838 35.618 -31.664 171 171 163
20.200 35.281 -31.683 168 168 160
20.551 34.931 -31.695 163 163 155
20.890 34.569 -31.698 157 156 151
21.222 34.201 -31.705 154 153 149
21.543 33.823 -31.709 153 154 149
21.857 33.439 -31.719 152 153 148
22.165 33.050 -31.735 153 154 149
22.461 32.651 -31.744 153 154 149
22.748 32.246 -31.756 151 150 146
23.020 31.830 -31.759 152 151 147
23.281 31.408 -31.760 152 151 147
23.532 30.980 -31.763 150 149 145
23.770 30.544 -31.759 149 151 146
23.996 30.101 -31.755 150 152 147
24.208 29.652 -31.743 151 153 148
24.401 29.195 -31.719 154 156 151
24.575 28.730 -31.681 159 160 154
24.735 28.261 -31.637 162 163 157
24.881 27.788 -31.590 162 163 157
25.016 27.312 -31.545 163 164 158
25.136 26.833 -31.495 161 163 158
25.243 26.351 -31.442 160 162 157
25.340 25.868 -31.393 161 163 158
25.432 25.386 -31.357 161 163 158
25.522 24.903 -31.337 160 165 159
25.610 24.421 -31.334 160 165 159
25.690 23.937 -31.337 160 165 159
25.761 23.452 -31.345 160 165 159
25.825 22.965 -31.362 164 166 163
25.883 22.477 -31.389 164 166 163
25.929 21.988 -31.415 163 165 162
25.961 21.497 -31.438 163 165 162
25.976 21.005 -31.455 162 164 159
25.979 20.513 -31.468 161 163 158
25.967 20.020 -31.480 160 162 157
25.940 19.529 -31.484 160 162 157
25.895 19.038 -31.480 160 162 159
25.836 18.549 -31.472 160 162 159
25.760 18.063 -31.456 158 160 157
25.672 17.579 -31.439 160 162 159
25.571 17.097 -31.420 157 162 158
25.455 16.619 -31.397 158 163 159
25.326 16.145 -31.370 159 164 160
25.183 15.676 -31.339 160 165 161
25.025 15.211 -31.301 163 165 162
24.853 14.752 -31.259 162 164 161
24.668 14.299 -31.213 162 164 161
24.470 13.851 -31.164 162 164 161
24.262 13.410 -31.115 160 165 159
24.044 12.973 -31.068 160 165 159
23.817 12.543 -31.021 159 164 158
23.578 12.119 -30.973 160 165 159
23.328 11.703 -30.923 160 162 159
23.070 11.292 -30.876 161 163 160
22.803 10.889 -30.831 162 164 161
22.529 10.490 -30.790 162 164 161
22.249 10.098 -30.756 163 165 162
21.959 9.712 -30.721 163 165 162
21.662 9.333 -30.689 162 164 161
21.358 8.960 -30.663 162 164 161
21.050 8.592 -30.645 163 165 162
20.735 8.230 -30.632 164 166 163
20.408 7.878 -30.613 162 164 161
20.072 7.535 -30.592 162 164 161
19.729 7.201 -30.571 164 166 163
19.378 6.874 -30.552 164 166 163
19.018 6.559 -30.528 164 166 163
18.647 6.257 -30.496 164 166 163
18.265 5.968 -30.455 163 165 162
17.876 5.691 -30.410 161 163 160
17.480 5.424 -30.364 158 160 157
17.083 5.161 -30.331 155 157 154
16.676 4.914 -30.288 148 148 146
16.265 4.676 -30.246 138 138 138
15.849 4.447 -30.208 137 139 138
15.427 4.231 -30.165 137 141 142
14.998 4.031 -30.112 143 145 144
14.556 3.857 -30.030 147 147 145
14.115 3.687 -29.962 151 151 149
13.676 3.518 -29.914 153 153 151
13.234 3.359 -29.866 154 156 153
12.787 3.215 -29.813 157 159 156
12.338 3.080 -29.764 159 161 158
11.888 2.953 -29.718 160 162 159
11.437 2.831 -29.685 157 162 158
10.988 2.708 -29.675 159 164 160
10.539 2.582 -29.686 158 163 159
10.088 2.463 -29.706 160 165 161
9.633 2.362 -29.714 158 160 159
9.176 2.269 -29.727 155 157 154
8.716 2.189 -29.736 155 157 154
8.254 2.116 -29.754 155 157 154
7.794 2.027 -29.816 155 157 152
7.330 1.952 -29.875 152 157 151
6.863 1.895 -29.921 152 157 153
6.394 1.888 -29.904 150 155 149
5.925 1.853 -29.954 148 154 150
5.454 1.857 -29.957 143 149 145
4.989 1.959 -29.815 145 150 146
4.609 3.173 -27.833 148 150 149
4.340 4.915 -24.975 156 161 157
4.003 5.425 -24.191 154 158 157
3.664 5.764 -23.707 152 156 155
3.538 7.251 -21.290 152 153 155
3.739 10.017 -16.692 149 153 154
3.864 11.830 -13.689 132 136 135
3.809 12.561 -12.523 132 136 135
3.683 12.904 -12.024 113 118 114
3.516 13.065 -11.843 114 115 109
3.330 13.150 -11.801 107 108 100
3.141 13.227 -11.783 101 102 94
2.951 13.296 -11.786 108 109 101
2.757 13.359 -11.808 101 103 98
2.568 13.434 -11.818 84 86 83
2.386 13.524 -11.808 81 83 82
2.211 13.627 -11.780 108 109 111
2.045 13.748 -11.729 70 75 81
1.891 13.885 -11.652 61 66 72
1.747 14.035 -11.558 59 64 70
1.606 14.185 -11.468 64 69 75
1.466 14.333 -11.388 57 66 73
1.326 14.475 -11.325 57 64 72
1.180 14.607 -11.289 55 60 66
1.033 14.737 -11.265 55 58 65
0.886 14.865 -11.252 57 61 70
0.747 15.003 -11.225 57 64 72
0.610 15.141 -11.203 57 64 72
0.473 15.279 -11.190 56 63 71
0.334 15.415 -11.189 58 63 69
0.159 15.516 -11.282 58 63 69
-0.191 15.462 -11.770 19 24 30
-0.351 15.592 -11.826 17 22 28
-0.477 15.751 -11.817 25 32 40
-0.575 15.933 -11.755 22 31 38
-0.671 16.113 -11.701 31 40 47
-0.771 16.290 -11.663 29 38 45
-0.865 16.468 -11.624 36 45 52
-0.966 16.642 -11.607 29 38 45
-1.062 16.817 -11.590 25 34 41
-1.158 16.993 -11.582 22 31 38
-1.226 17.183 -11.528 27 34 42
-1.084 17.477 -11.092 64 71 79
-1.056 17.703 -10.883 57 66 73
-1.109 17.888 -10.835 57 66 75
-1.163 18.069 -10.799 61 70 77
-1.214 18.251 -10.765 58 67 72
-1.264 18.433 -10.738 60 69 74
-1.308 18.616 -10.707 59 68 73
-1.347 18.799 -10.678 62 69 77
-1.382 18.983 -10.649 63 70 80
-1.413 19.167 -10.621 62 69 79
-1.438 19.352 -10.589 61 68 78
-1.457 19.537 -10.557 68 73 79
-1.474 19.721 -10.528 67 72 78
-1.489 19.905 -10.505 65 70 76
-1.502 20.089 -10.484 67 72 78
-1.508 20.273 -10.461 66 73 79
-1.510 20.457 -10.438 68 73 79
-1.509 20.640 -10.417 80 79 84
-1.503 20.823 -10.395 72 70 71
-1.494 21.005 -10.377 105 101 98
-1.478 21.187 -10.354 106 103 98
-1.460 21.368 -10.335 101 98 93
-1.437 21.548 -10.316 104 101 96
-1.409 21.727 -10.294 109 106 99
-1.376 21.906 -10.273 101 98 91
-1.339 22.082 -10.250 104 101 94
-1.299 22.258 -10.231 107 104 97
-1.256 22.433 -10.214 105 100 94
-1.212 22.608 -10.203 108 105 98
-1.168 22.782 -10.199 104 101 94
-1.122 22.955 -10.198 102 102 94
-1.070 23.127 -10.194 108 103 97
-1.010 23.296 -10.185 107 102 96
-0.948 23.464 -10.177 103 98 92
-0.883 23.631 -10.173 103 98 92
-0.814 23.796 -10.169 109 104 98
-0.742 23.960 -10.165 105 100 94
-0.664 24.121 -10.161 106 101 95
-0.585 24.282 -10.159 105 100 94
-0.502 24.440 -10.158 104 99 93
-0.416 24.597 -10.159 104 99 93
-0.325 24.751 -10.156 105 100 94
-0.227 24.901 -10.148 104 99 93
-0.125 25.047 -10.138 103 100 93
-0.019 25.191 -10.129 102 99 92
0.089 25.333 -10.121 107 104 97
0.202 25.471 -10.112 104 101 94
0.316 25.608 -10.104 100 100 92
0.435 25.741 -10.096 100 100 92
0.556 25.871 -10.088 101 101 93
0.680 25.998 -10.082 101 101 93
0.808 26.121 -10.072 102 99 92
0.938 26.243 -10.065 103 100 93
1.071 26.360 -10.058 101 98 91
1.207 26.473 -10.049 103 100 93
1.346 26.584 -10.041 100 100 92
1.488 26.690 -10.032 102 99 92
1.631 26.795 -10.026 101 96 90
1.776 26.896 -10.022 101 94 88
1.923 26.993 -10.015 101 96 90
2.074 27.086 -10.009 104 101 94
2.226 27.176 -10.003 95 92 85
2.381 27.261 -9.995 97 97 89
2.538 27.342 -9.987 94 94 86
2.697 27.418 -9.978 93 93 85
2.857 27.491 -9.970 93 93 85
3.019 27.561 -9.963 95 95 87
3.183 27.624 -9.953 90 90 82
3.348 27.683 -9.942 92 92 84
3.516 27.737 -9.929 92 92 84
3.684 27.787 -9.917 93 93 85
3.853 27.835 -9.908 93 93 85
4.023 27.877 -9.896 94 94 86
4.194 27.912 -9.880 93 93 85
4.366 27.944 -9.864 89 89 81
4.539 27.969 -9.847 93 94 86
4.712 27.993 -9.833 84 87 78
4.885 28.011 -9.816 85 85 77
5.059 28.022 -9.796 91 88 81
5.233 28.028 -9.774 88 87 82
5.406 28.029 -9.751 84 84 76
5.579 28.029 -9.733 84 84 74
5.752 28.018 -9.704 85 85 73
5.925 41.583 -33.641 150 149 145
6.431 41.631 -33.737 148 148 146
6.935 41.580 -33.680 148 148 146
7.440 41.556 -33.692 95 95 95
7.947 41.537 -33.734 61 66 69
8.444 41.436 -33.656 56 64 66
8.938 41.323 -33.577 54 62 64
9.426 41.184 -33.473 55 63 65
9.908 41.030 -33.364 81 81 79
10.382 40.855 -33.237 140 139 134
10.860 40.709 -33.182 150 149 144
11.342 40.582 -33.182 154 153 148
11.818 40.433 -33.165 157 157 149
12.288 40.269 -33.139 158 158 150
12.753 40.088 -33.105 161 161 153
13.211 39.895 -33.069 160 160 152
13.666 39.694 -33.038 163 162 157
14.117 39.487 -33.015 160 159 154
14.568 39.281 -33.017 175 174 169
15.020 39.074 -33.037 178 177 172
15.464 38.852 -33.050 183 182 177
15.902 38.618 -33.062 183 183 175
16.335 38.373 -33.073 190 190 182
16.763 38.121 -33.089 189 189 181
17.187 37.861 -33.113 188 189 181
17.607 37.593 -33.141 185 186 178
18.019 37.313 -33.167 184 185 177
18.428 37.027 -33.201 183 184 176
18.830 36.730 -33.235 186 187 179
19.221 36.419 -33.258 185 186 178
19.601 36.095 -33.274 183 184 176
19.976 35.764 -33.296 185 186 178
20.341 35.422 -33.313 181 182 174
20.696 35.069 -33.327 181 182 176
21.040 34.705 -33.335 180 181 175
21.372 34.330 -33.335 181 182 176
21.693 33.946 -33.331 181 182 176
22.005 33.554 -33.330 178 179 173
22.308 33.156 -33.330 175 176 170
22.602 32.750 -33.330 177 178 172
22.886 32.338 -33.332 177 178 172
23.159 31.918 -33.332 177 178 172
23.425 31.494 -33.339 176 177 171
23.683 31.065 -33.352 176 177 171
23.930 30.629 -33.362 175 176 170
24.168 30.188 -33.376 173 174 169
24.391 29.739 -33.382 174 175 170
24.592 29.280 -33.367 173 174 169
24.772 28.812 -33.334 174 175 169
24.936 28.339 -33.294 169 170 164
25.085 27.861 -33.248 171 172 166
25.222 27.380 -33.200 173 174 168
25.346 26.897 -33.154 170 171 165
25.460 26.411 -33.108 170 171 165
25.565 25.925 -33.069 167 168 162
25.662 25.437 -33.038 170 171 165
25.753 24.949 -33.017 171 172 167
25.843 24.461 -33.015 168 169 164
25.925 23.972 -33.021 166 167 162
25.996 23.481 -33.028 168 169 164
26.058 22.988 -33.041 165 167 164
26.111 22.494 -33.059 163 165 164
26.149 21.999 -33.073 161 163 162
26.172 21.502 -33.081 159 161 160
26.178 21.005 -33.080 154 156 153
26.170 20.508 -33.077 156 158 155
26.149 20.012 -33.071 160 162 159
26.112 19.516 -33.061 158 160 157
26.062 19.022 -33.048 160 162 159
26.001 18.529 -33.038 165 167 164
25.928 18.038 -33.026 167 169 166
25.842 17.549 -33.014 169 171 168
25.743 17.063 -32.999 169 171 168
25.630 16.580 -32.981 169 171 168
25.505 16.100 -32.962 169 171 168
25.366 15.625 -32.940 170 172 169
25.214 15.154 -32.913 172 174 171
25.047 14.688 -32.882 169 171 168
24.870 14.226 -32.852 167 169 166
24.681 13.770 -32.821 171 173 170
24.481 13.319 -32.789 170 172 169
24.271 12.873 -32.759 166 168 165
24.050 12.432 -32.729 168 170 167
23.818 11.998 -32.696 170 172 169
23.572 11.572 -32.659 170 172 169
23.313 11.155 -32.614 171 173 170
23.042 10.746 -32.565 171 173 170
22.758 10.345 -32.512 169 171 168
22.465 9.953 -32.456 169 171 170
22.160 9.571 -32.395 170 172 171
21.846 9.197 -32.334 171 173 172
21.525 8.830 -32.276 170 172 171
21.198 8.471 -32.222 172 174 173
20.862 8.120 -32.168 167 169 168
20.519 7.777 -32.116 169 171 170
20.170 7.442 -32.068 171 173 172
19.814 7.116 -32.022 169 171 170
19.452 6.797 -31.979 169 171 170
19.083 6.487 -31.937 167 169 168
18.705 6.189 -31.891 165 167 166
18.320 5.902 -31.842 166 168 167
17.924 5.629 -31.783 168 170 169
17.519 5.372 -31.711 164 166 165
17.110 5.123 -31.645 162 164 163
16.691 4.891 -31.567 164 166 165
16.265 4.676 -31.476 168 170 169
15.841 4.460 -31.410 168 170 169
15.422 4.239 -31.375 167 171 170
15.005 4.017 -31.364 167 169 168
14.578 3.814 -31.336 167 169 168
14.141 3.633 -31.284 164 166 165
13.701 3.461 -31.238 166 168 167
13.258 3.300 -31.193 167 167 167
12.812 3.149 -31.148 164 166 165
12.362 3.013 -31.097 164 168 167
11.910 2.887 -31.049 161 165 164
11.457 2.767 -31.011 159 165 163
11.005 2.645 -30.996 158 164 162
10.552 2.529 -30.989 157 163 161
10.099 2.416 -30.999 155 161 159
9.643 2.312 -31.012 154 159 155
9.185 2.216 -31.029 150 155 151
8.724 2.133 -31.044 149 151 150
8.262 2.057 -31.068 148 148 148
7.797 1.989 -31.096 146 148 143
7.332 1.928 -31.132 143 148 142
6.864 1.883 -31.161 140 145 139
6.395 1.859 -31.172 141 146 140
5.925 1.857 -31.166 140 146 142
5.455 1.872 -31.150 141 147 145
4.986 1.896 -31.138 140 146 144
4.518 1.943 -31.105 141 145 144
4.054 2.016 -31.049 138 142 143
3.592 2.092 -31.007 141 142 146
3.135 2.199 -30.930 142 143 147
2.683 2.325 -30.838 141 142 146
2.241 2.487 -30.703 140 144 145
1.810 2.684 -30.524 143 147 146
1.385 2.882 -30.360 141 145 144
0.961 3.071 -30.230 141 145 144
0.540 3.256 -30.126 142 146 145
0.153 3.536 -29.866 143 147 146
-0.200 3.889 -29.486 142 146 145
-0.480 4.403 -28.821 144 148 147
-0.000 6.701 -24.816 144 146 145
0.569 8.923 -20.891 147 149 148
0.832 10.238 -18.630 146 152 150
0.707 10.639 -18.101 134 143 140
1.372 12.488 -14.726 109 115 115
1.939 13.969 -12.007 88 93 96
1.796 14.117 -11.909 66 71 74
1.644 14.245 -11.859 60 65 68
1.493 14.372 -11.817 56 61 67
1.342 14.498 -11.785 61 66 72
1.189 14.620 -11.769 61 66 72
1.036 14.741 -11.762 56 61 67
0.888 14.869 -11.750 54 61 69
0.749 15.005 -11.725 54 61 71
0.613 15.145 -11.698 54 61 71
0.479 15.286 -11.678 54 61 71
0.341 15.422 -11.677 51 58 68
0.200 15.555 -11.689 49 56 66
0.031 15.664 -11.776 51 58 68
-0.171 15.747 -11.943 27 34 44
-0.318 15.882 -11.988 16 23 31
-0.413 16.059 -11.924 24 31 39
-0.514 16.230 -11.883 22 29 37
-0.606 16.406 -11.836 27 34 42
-0.705 16.576 -11.810 53 62 71
-0.811 16.740 -11.809 29 38 47
-0.918 16.904 -11.817 24 33 42
-0.982 17.093 -11.748 19 28 37
-0.954 17.329 -11.508 53 62 71
-0.969 17.535 -11.366 52 61 70
-1.018 17.721 -11.303 53 63 72
-1.082 17.899 -11.274 56 66 75
-1.142 18.078 -11.248 59 68 75
-1.195 18.259 -11.217 57 66 73
-1.246 18.439 -11.191 58 67 74
-1.290 18.622 -11.161 59 68 75
-1.330 18.804 -11.130 59 68 75
-1.364 18.988 -11.098 62 71 78
-1.394 19.172 -11.067 60 69 76
-1.420 19.356 -11.038 63 72 79
-1.442 19.540 -11.010 65 69 72
-1.460 19.724 -10.982 81 82 84
-1.475 19.907 -10.957 95 96 98
-1.486 20.091 -10.933 79 80 82
-1.492 20.275 -10.907 57 60 67
-1.491 20.458 -10.879 68 71 78
-1.489 20.641 -10.856 85 86 90
-1.481 20.823 -10.831 98 98 100
-1.470 21.005 -10.807 99 101 96
-1.452 21.186 -10.781 87 89 84
-1.433 21.367 -10.759 86 88 83
-1.410 21.546 -10.739 87 89 86
-1.386 21.725 -10.723 99 100 94
-1.356 21.903 -10.706 105 106 100
-1.322 22.080 -10.689 101 102 96
-1.285 22.256 -10.675 103 104 98
-1.246 22.431 -10.662 102 102 94
-1.204 22.606 -10.654 99 99 91
-1.160 22.780 -10.650 100 100 92
-1.114 22.953 -10.650 100 100 92
-1.061 23.124 -10.644 103 102 97
-1.001 23.293 -10.634 102 99 94
-0.940 23.461 -10.627 103 100 93
-0.875 23.628 -10.623 100 97 88
-0.809 23.794 -10.623 97 94 87
-0.738 23.958 -10.623 103 100 95
-0.662 24.120 -10.620 103 100 95
-0.582 24.280 -10.617 106 103 98
-0.500 24.439 -10.617 105 102 95
-0.415 24.596 -10.619 104 101 94
-0.323 24.750 -10.617 103 100 93
-0.227 24.900 -10.611 102 99 92
-0.125 25.047 -10.601 98 98 90
-0.020 25.191 -10.592 102 102 94
0.089 25.333 -10.584 98 98 90
0.202 25.471 -10.573 99 99 91
0.317 25.607 -10.564 102 101 96
0.437 25.739 -10.553 99 98 93
0.559 25.868 -10.542 99 98 93
0.684 25.995 -10.533 99 98 93
0.813 26.117 -10.521 103 103 95
0.944 26.237 -10.512 99 99 91
1.077 26.353 -10.502 97 97 89
1.214 26.466 -10.492 102 102 94
1.353 26.576 -10.482 99 96 89
1.494 26.682 -10.473 98 95 88
1.637 26.786 -10.466 100 97 90
1.782 26.887 -10.462 101 98 91
1.930 26.984 -10.455 99 96 89
2.080 27.077 -10.448 99 96 89
2.232 27.166 -10.440 96 93 86
2.387 27.250 -10.431 98 95 88
2.543 27.331 -10.423 93 93 85
2.702 27.407 -10.413 97 97 89
2.862 27.480 -10.406 98 95 88
3.024 27.549 -10.398 101 98 91
3.187 27.613 -10.389 97 92 86
3.352 27.673 -10.378 97 92 86
3.519 27.728 -10.367 98 93 87
3.687 27.779 -10.357 97 92 86
3.855 27.828 -10.349 97 94 87
4.025 27.871 -10.339 97 94 87
4.195 27.908 -10.325 95 95 87
4.367 27.940 -10.311 93 94 86
4.540 27.967 -10.295 88 89 81
4.712 27.990 -10.279 94 95 87
4.886 28.009 -10.263 87 87 79
5.059 28.021 -10.243 93 93 85
5.233 28.027 -10.221 87 88 80
5.406 28.028 -10.197 85 86 78
5.580 28.025 -10.174 88 89 81
5.752 28.018 -10.150 85 86 78
5.925 41.734 -35.301 146 146 144
6.434 41.776 -35.386 147 147 145
6.942 41.716 -35.313 145 145 143
7.448 41.658 -35.264 136 136 134
7.955 41.620 -35.274 129 131 128
8.457 41.540 -35.230 130 132 131
8.955 41.433 -35.161 128 130 129
9.452 41.334 -35.126 131 133 132
9.947 41.226 -35.098 141 142 137
10.431 41.072 -35.008 149 148 144
10.905 40.889 -34.885 149 148 144
11.384 40.734 -34.835 148 147 143
11.859 40.569 -34.788 149 148 143
12.332 40.400 -34.755 150 149 144
12.802 40.226 -34.734 149 148 143
13.267 40.041 -34.713 151 150 145
13.731 39.851 -34.706 148 147 143
14.189 39.650 -34.698 146 145 141
14.644 39.441 -34.697 160 159 155
15.096 39.225 -34.705 160 159 155
15.539 38.993 -34.701 163 162 157
15.980 38.755 -34.709 169 168 163
16.417 38.511 -34.726 176 175 170
16.850 38.258 -34.746 171 170 165
17.279 37.999 -34.777 169 170 164
17.704 37.731 -34.811 170 171 165
18.122 37.451 -34.844 175 176 170
18.534 37.163 -34.880 214 215 209
18.939 36.863 -34.915 193 194 188
19.333 36.549 -34.939 189 190 184
19.717 36.223 -34.956 183 184 178
20.091 35.885 -34.969 171 172 166
20.455 35.535 -34.975 175 176 171
20.809 35.176 -34.980 175 176 171
21.152 34.806 -34.980 173 174 169
21.483 34.426 -34.973 174 175 170
21.804 34.037 -34.965 173 174 169
22.118 33.643 -34.962 175 176 171
22.426 33.243 -34.968 183 184 179
22.724 32.836 -34.973 184 185 180
23.010 32.421 -34.975 183 184 179
23.283 31.997 -34.971 183 184 179
23.550 31.570 -34.977 185 186 181
23.813 31.139 -34.995 183 184 179
24.068 30.703 -35.019 183 184 179
24.315 30.262 -35.049 185 186 181
24.546 29.813 -35.067 184 185 180
24.757 29.353 -35.067 182 183 178
24.949 28.885 -35.053 180 181 176
25.124 28.411 -35.029 179 180 175
25.280 27.931 -34.991 167 168 163
25.420 27.446 -34.945 164 165 160
25.549 26.958 -34.901 156 157 152
25.663 26.468 -34.853 150 151 146
25.770 25.976 -34.813 154 155 150
25.864 25.483 -34.774 154 155 150
25.948 24.988 -34.737 164 165 160
26.031 24.494 -34.721 159 160 155
26.106 23.999 -34.713 158 159 154
26.171 23.502 -34.707 157 158 153
26.229 23.005 -34.712 150 152 151
26.279 22.506 -34.725 146 148 147
26.317 22.007 -34.739 148 150 149
26.341 21.506 -34.748 146 148 147
26.349 21.005 -34.752 147 149 146
26.345 20.504 -34.756 146 148 145
26.328 20.003 -34.759 148 150 147
26.294 19.503 -34.753 149 151 148
26.243 19.004 -34.739 144 146 143
26.177 18.507 -34.719 144 146 143
26.096 18.013 -34.695 145 147 144
26.000 17.522 -34.664 145 147 144
25.889 17.034 -34.628 146 148 145
25.767 16.549 -34.595 146 148 145
25.640 16.067 -34.572 148 150 147
25.508 15.586 -34.563 148 150 147
25.367 15.107 -34.559 144 149 145
25.213 14.633 -34.553 143 148 144
25.047 14.163 -34.545 145 150 146
24.869 13.697 -34.538 147 152 148
24.681 13.236 -34.532 152 154 151
24.480 12.780 -34.522 147 149 146
24.261 12.333 -34.499 146 148 145
24.025 11.894 -34.464 144 146 143
23.774 11.465 -34.418 144 146 143
23.510 11.043 -34.368 148 150 147
23.236 10.629 -34.316 147 149 146
22.948 10.225 -34.257 144 146 143
22.647 9.831 -34.190 148 150 147
22.335 9.448 -34.117 149 151 148
22.013 9.073 -34.042 152 154 151
21.681 8.709 -33.964 152 154 151
21.339 8.355 -33.881 152 154 151
20.986 8.013 -33.792 155 157 154
20.627 7.680 -33.705 157 159 156
20.264 7.353 -33.626 167 169 166
19.897 7.033 -33.556 167 169 166
19.524 6.721 -33.489 166 168 165
19.142 6.421 -33.417 168 170 167
18.753 6.133 -33.342 170 172 169
18.360 5.852 -33.273 173 175 172
17.961 5.581 -33.205 176 178 175
17.553 5.326 -33.125 178 180 177
17.140 5.080 -33.049 177 179 176
16.720 4.848 -32.966 173 173 171
16.295 4.628 -32.880 174 174 172
15.869 4.413 -32.808 173 173 171
15.446 4.197 -32.760 173 173 171
15.022 3.985 -32.726 171 173 170
14.592 3.786 -32.688 171 173 170
14.154 3.605 -32.636 169 171 168
13.714 3.433 -32.586 168 170 167
13.271 3.270 -32.542 167 169 166
12.826 3.114 -32.506 167 169 166
12.377 2.972 -32.465 166 171 167
11.925 2.841 -32.423 159 165 161
11.473 2.713 -32.396 159 171 161
11.022 2.586 -32.389 156 168 158
10.568 2.469 -32.385 147 159 149
10.112 2.355 -32.395 145 157 147
9.655 2.249 -32.412 142 154 144
9.196 2.149 -32.437 140 152 142
8.735 2.061 -32.461 138 148 140
8.271 1.982 -32.491 138 144 140
7.805 1.914 -32.520 136 145 144
7.336 1.864 -32.536 135 143 145
6.867 1.830 -32.545 131 139 141
6.396 1.807 -32.556 132 140 142
5.925 1.800 -32.558 133 142 139
5.453 1.811 -32.549 134 143 138
4.983 1.841 -32.526 133 142 137
4.515 1.897 -32.477 132 141 136
4.050 1.976 -32.408 133 142 137
3.588 2.064 -32.341 128 137 134
3.130 2.164 -32.275 130 139 136
2.676 2.282 -32.194 133 142 139
2.230 2.433 -32.073 129 138 135
1.795 2.615 -31.915 132 141 138
1.367 2.811 -31.751 133 142 139
0.945 3.010 -31.598 133 142 139
0.529 3.218 -31.446 137 143 141
0.124 3.446 -31.276 136 142 140
-0.271 3.689 -31.093 134 140 138
-0.655 3.947 -30.899 133 139 137
-1.033 4.209 -30.713 134 140 138
-1.408 4.463 -30.559 137 143 141
-1.785 4.705 -30.446 137 146 143
-2.150 4.964 -30.316 133 144 140
-2.514 5.217 -30.213 141 147 147
-2.862 5.494 -30.078 140 146 146
-3.200 5.782 -29.936 135 141 141
-3.556 6.034 -29.886 137 143 143
-3.891 6.315 -29.792 136 142 142
-4.172 6.669 -29.551 139 144 147
-4.141 7.433 -28.406 150 155 158
-1.030 12.094 -18.341 142 147 150
0.303 14.155 -13.945 140 145 148
0.191 14.359 -13.795 123 128 132
0.091 14.568 -13.632 95 100 104
0.306 15.103 -12.663 79 84 88
0.359 15.439 -12.164 63 71 74
0.232 15.585 -12.144 56 64 67
0.088 15.715 -12.175 46 54 57
-0.058 15.844 -12.217 50 58 61
-0.193 15.985 -12.239 46 51 57
-0.306 16.142 -12.222 23 28 34
-0.404 16.311 -12.178 19 24 30
-0.497 16.483 -12.133 19 24 30
-0.591 16.652 -12.101 16 23 31
-0.685 16.820 -12.077 16 23 31
-0.767 16.994 -12.038 26 33 41
-0.823 17.183 -11.954 42 49 57
-0.859 17.379 -11.841 48 57 64
-0.907 17.567 -11.761 52 61 68
-0.972 17.743 -11.727 55 64 71
-1.040 17.918 -11.709 52 61 68
-1.105 18.094 -11.690 60 67 75
-1.165 18.271 -11.672 58 65 71
-1.220 18.449 -11.654 59 66 72
-1.268 18.629 -11.630 62 69 75
-1.309 18.811 -11.602 74 79 82
-1.344 18.994 -11.570 72 76 79
-1.374 19.177 -11.538 69 73 76
-1.401 19.360 -11.511 68 72 75
-1.424 19.543 -11.483 76 78 77
-1.443 19.727 -11.456 68 70 69
-1.459 19.910 -11.431 71 73 72
-1.468 20.093 -11.403 65 67 66
-1.472 20.277 -11.374 67 69 68
-1.472 20.459 -11.345 70 71 73
-1.468 20.642 -11.319 66 68 67
-1.461 20.824 -11.293 71 73 70
-1.449 21.005 -11.268 99 100 94
-1.431 21.186 -11.240 99 99 91
-1.412 21.366 -11.218 100 99 94
-1.392 21.545 -11.202 98 97 93
-1.370 21.723 -11.189 100 99 94
-1.343 21.901 -11.176 100 100 92
-1.310 22.078 -11.161 104 104 96
-1.274 22.254 -11.147 101 101 93
-1.235 22.429 -11.135 101 98 91
-1.190 22.603 -11.121 104 101 94
-1.142 22.775 -11.108 101 98 91
-1.093 22.947 -11.101 103 100 93
-1.036 23.117 -11.089 98 98 88
-0.975 23.284 -11.075 98 98 88
-0.914 23.452 -11.069 100 100 90
-0.855 23.620 -11.074 102 102 94
-0.791 23.787 -11.080 93 92 87
-0.719 23.950 -11.077 105 104 99
-0.644 24.112 -11.075 99 98 93
-0.563 24.271 -11.069 96 95 90
-0.480 24.428 -11.067 102 99 92
-0.395 24.585 -11.068 100 97 90
-0.304 24.738 -11.067 98 95 88
-0.209 24.889 -11.064 101 98 91
-0.109 25.036 -11.057 98 98 90
-0.005 25.181 -11.050 103 103 95
0.103 25.322 -11.041 98 98 90
0.215 25.461 -11.031 99 99 91
0.331 25.596 -11.021 98 97 92
0.450 25.728 -11.010 94 93 88
0.571 25.857 -11.000 99 98 93
0.697 25.982 -10.989 99 98 93
0.826 26.104 -10.975 99 99 91
0.956 26.223 -10.965 99 99 91
1.090 26.339 -10.955 96 96 88
1.226 26.452 -10.944 98 98 90
1.365 26.561 -10.934 100 97 90
1.506 26.667 -10.924 99 96 89
1.649 26.770 -10.916 100 97 90
1.794 26.870 -10.909 98 95 88
1.942 26.965 -10.899 97 94 87
2.092 27.058 -10.891 95 92 85
2.244 27.146 -10.882 96 93 86
2.398 27.230 -10.873 96 93 86
2.555 27.310 -10.864 93 93 85
2.713 27.385 -10.852 95 95 87
2.873 27.457 -10.842 97 94 87
3.035 27.525 -10.832 96 91 85
3.198 27.588 -10.821 98 93 87
3.363 27.647 -10.810 98 93 87
3.528 27.702 -10.798 96 91 85
3.695 27.753 -10.787 100 95 89
3.863 27.801 -10.778 98 95 88
4.032 27.844 -10.768 97 94 87
4.202 27.882 -10.757 90 90 82
4.373 27.915 -10.743 91 92 84
4.544 27.943 -10.729 90 90 82
4.716 27.967 -10.715 93 93 85
4.889 27.988 -10.703 87 87 79
5.062 28.002 -10.686 89 89 81
5.235 28.010 -10.666 89 90 82
5.408 28.012 -10.643 88 89 81
5.580 28.011 -10.621 85 86 78
5.753 28.008 -10.605 87 88 80
5.925 41.989 -37.259 138 140 137
6.441 42.030 -37.348 135 137 134
6.957 42.012 -37.349 133 135 132
7.471 41.964 -37.318 133 135 132
7.982 41.895 -37.271 133 132 128
8.491 41.816 -37.229 133 132 127
8.999 41.734 -37.204 131 130 125
9.507 41.649 -37.200 134 133 128
10.011 41.550 -37.191 132 133 128
10.511 41.429 -37.162 134 134 132
11.004 41.285 -37.112 134 134 132
11.497 41.141 -37.088 132 132 130
11.985 40.983 -37.057 134 135 130
12.469 40.817 -37.035 136 137 132
12.948 40.635 -37.006 134 135 130
13.422 40.441 -36.973 134 135 130
13.896 40.249 -36.969 135 135 133
14.367 40.050 -36.974 135 135 133
14.826 39.827 -36.953 138 138 136
15.284 39.600 -36.947 137 137 135
15.733 39.356 -36.928 140 141 136
16.176 39.102 -36.912 140 141 136
16.618 38.846 -36.915 147 148 143
17.053 38.580 -36.917 143 144 139
17.485 38.306 -36.929 145 146 141
17.907 38.020 -36.934 143 144 139
18.328 37.729 -36.954 144 145 140
18.745 37.433 -36.987 146 147 142
19.156 37.128 -37.021 145 146 141
19.555 36.807 -37.043 164 165 160
19.957 36.488 -37.093 146 147 142
20.350 36.156 -37.139 143 144 139
20.730 35.811 -37.173 148 148 146
21.103 35.456 -37.209 145 145 143
21.462 35.087 -37.231 148 148 146
21.808 34.706 -37.244 141 141 139
22.147 34.318 -37.261 145 145 143
22.474 33.921 -37.275 146 146 144
22.793 33.516 -37.291 143 143 141
23.101 33.102 -37.304 145 145 143
23.393 32.677 -37.306 141 141 139
23.676 32.246 -37.309 145 145 143
23.954 31.812 -37.326 143 143 141
24.225 31.372 -37.349 147 147 145
24.482 30.924 -37.367 146 146 144
24.725 30.468 -37.378 145 145 143
24.945 30.001 -37.363 143 143 141
25.147 29.526 -37.337 144 144 142
25.345 29.049 -37.326 155 155 153
25.532 28.569 -37.317 145 145 143
25.695 28.079 -37.285 148 148 146
25.838 27.584 -37.236 148 148 146
25.969 27.086 -37.189 151 151 149
26.090 26.586 -37.144 150 150 148
26.205 26.085 -37.115 151 151 149
26.313 25.583 -37.094 158 158 156
26.407 25.079 -37.071 162 162 160
26.484 24.573 -37.040 162 162 160
26.548 24.064 -37.006 167 167 165
26.592 23.554 -36.958 169 169 167
26.613 23.043 -36.892 168 170 169
26.618 22.532 -36.819 162 164 163
26.612 22.021 -36.751 157 159 158
26.598 21.513 -36.689 153 155 154
26.581 21.005 -36.646 147 149 146
26.562 20.498 -36.622 144 146 143
26.529 19.993 -36.595 143 145 142
26.478 19.489 -36.558 144 146 143
26.418 18.987 -36.527 143 145 142
26.348 18.486 -36.499 144 146 143
26.266 17.988 -36.472 140 142 139
26.175 17.491 -36.453 144 146 143
26.070 16.998 -36.427 141 145 144
25.956 16.507 -36.410 138 142 141
25.838 16.017 -36.407 137 141 140
25.711 15.529 -36.409 139 143 142
25.572 15.045 -36.413 141 145 144
25.418 14.565 -36.408 135 141 139
25.248 14.091 -36.397 139 145 143
25.067 13.621 -36.386 138 144 142
24.875 13.155 -36.375 140 144 143
24.669 12.696 -36.359 142 146 145
24.448 12.244 -36.336 135 139 138
24.210 11.801 -36.300 136 140 139
23.961 11.364 -36.262 138 142 141
23.700 10.936 -36.220 147 151 150
23.423 10.517 -36.169 141 145 144
23.133 10.108 -36.107 137 141 140
22.831 9.709 -36.040 143 147 146
22.518 9.318 -35.972 142 146 145
22.194 8.939 -35.895 139 143 142
21.858 8.571 -35.812 138 142 141
21.513 8.212 -35.727 138 142 141
21.154 7.868 -35.628 139 143 142
20.787 7.534 -35.528 137 141 140
20.416 7.208 -35.435 137 141 140
20.040 6.890 -35.346 140 145 141
19.664 6.575 -35.277 143 148 144
19.284 6.265 -35.219 143 148 144
18.897 5.966 -35.158 143 148 144
18.507 5.673 -35.107 140 145 141
18.116 5.383 -35.073 143 148 144
17.717 5.104 -35.037 143 148 144
17.311 4.838 -34.995 146 151 147
16.896 4.585 -34.945 152 152 150
16.473 4.346 -34.889 155 155 153
16.048 4.116 -34.839 159 159 157
15.617 3.896 -34.788 165 165 163
15.180 3.689 -34.734 171 173 170
14.742 3.488 -34.690 171 176 172
14.299 3.298 -34.646 174 179 175
13.850 3.125 -34.590 172 177 173
13.398 2.963 -34.536 170 175 171
12.944 2.809 -34.488 169 174 170
12.484 2.674 -34.425 167 173 169
12.018 2.559 -34.345 166 175 170
11.551 2.458 -34.261 160 178 164
11.086 2.355 -34.204 155 176 159
10.624 2.243 -34.185 165 186 169
10.161 2.141 -34.171 160 181 164
9.695 2.051 -34.155 152 173 158
9.228 1.968 -34.147 159 179 167
8.758 1.902 -34.131 145 162 152
8.288 1.843 -34.121 140 155 148
7.817 1.792 -34.119 139 155 145
7.344 1.757 -34.109 138 155 145
6.871 1.732 -34.101 136 153 143
6.398 1.717 -34.096 136 153 143
5.925 1.715 -34.090 139 152 145
5.451 1.728 -34.076 134 147 140
4.979 1.760 -34.048 133 146 139
4.509 1.817 -33.997 132 145 138
4.042 1.892 -33.931 131 144 135
3.578 1.984 -33.856 123 139 129
3.119 2.094 -33.767 121 137 127
2.665 2.220 -33.669 127 143 133
2.217 2.364 -33.559 121 133 129
1.776 2.529 -33.426 127 139 135
1.342 2.709 -33.286 131 143 139
0.914 2.898 -33.150 133 145 141
0.492 3.096 -33.013 135 146 142
0.078 3.307 -32.871 131 142 138
-0.329 3.529 -32.726 133 144 140
-0.728 3.759 -32.583 130 141 137
-1.122 3.994 -32.447 131 142 138
-1.509 4.236 -32.317 131 142 138
-1.889 4.484 -32.191 130 141 137
-2.263 4.740 -32.067 131 140 137
-2.626 5.008 -31.936 131 137 137
-2.982 5.283 -31.806 131 137 137
-3.330 5.564 -31.679 133 139 139
-3.671 5.852 -31.556 133 139 139
-4.010 6.137 -31.455 135 141 139
-4.343 6.426 -31.360 135 141 137
-4.666 6.725 -31.262 137 143 139
-4.986 7.025 -31.177 137 143 139
-5.307 7.320 -31.122 137 141 140
-5.627 7.613 -31.088 136 140 139
-5.948 7.905 -31.076 139 143 142
-6.249 8.219 -31.029 139 143 142
-6.554 8.527 -31.016 137 143 141
-6.825 8.866 -30.935 139 145 143
-6.783 9.488 -30.085 138 144 142
-5.937 10.773 -27.307 139 145 143
-6.007 11.213 -26.877 143 147 148
-6.060 11.653 -26.440 138 142 143
-3.597 13.943 -20.179 125 129 130
-0.657 16.370 -13.061 105 109 110
-0.518 16.701 -12.495 70 75 78
-0.600 16.874 -12.447 59 64 67
-0.678 17.047 -12.402 49 54 57
-0.740 17.229 -12.331 52 57 60
-0.792 17.415 -12.247 58 63 66
-0.848 17.596 -12.185 53 58 61
-0.914 17.771 -12.152 56 61 64
-0.981 17.944 -12.132 53 58 61
-1.051 18.116 -12.125 60 64 67
-1.116 18.289 -12.117 66 70 71
-1.176 18.464 -12.109 72 76 77
-1.227 18.643 -12.090 71 75 76
-1.272 18.822 -12.069 103 103 101
-1.313 19.002 -12.050 99 98 94
-1.345 19.184 -12.020 96 95 91
-1.375 19.366 -11.996 99 98 94
-1.397 19.549 -11.966 99 99 97
-1.416 19.731 -11.938 102 102 100
-1.432 19.914 -11.913 98 98 96
-1.444 20.096 -11.890 97 97 95
-1.450 20.279 -11.864 100 101 96
-1.451 20.461 -11.836 103 104 98
-1.444 20.643 -11.803 97 98 90
-1.434 20.824 -11.772 102 104 93
-1.422 21.005 -11.744 99 96 89
-1.403 21.185 -11.713 104 101 94
-1.380 21.364 -11.683 103 100 95
-1.356 21.542 -11.658 100 96 93
-1.330 21.720 -11.637 99 98 94
-1.298 21.896 -11.615 101 100 96
-1.260 22.071 -11.588 102 101 97
-1.219 22.245 -11.565 103 102 98
-1.176 22.418 -11.545 96 95 90
-1.131 22.589 -11.529 98 97 92
-1.086 22.761 -11.520 100 99 94
-1.041 22.933 -11.521 103 102 97
-0.989 23.102 -11.517 101 102 94
-0.934 23.271 -11.514 99 100 92
-0.877 23.439 -11.514 101 102 94
-0.815 23.605 -11.515 91 92 86
-0.748 23.769 -11.511 99 98 93
-0.671 23.929 -11.497 103 102 97
-0.592 24.087 -11.485 98 97 92
-0.511 24.245 -11.480 99 98 93
-0.431 24.402 -11.482 101 98 91
-0.347 24.558 -11.485 104 101 94
-0.259 24.711 -11.487 102 99 92
-0.167 24.862 -11.489 102 99 92
-0.068 25.009 -11.483 103 103 95
0.035 25.153 -11.478 100 100 92
0.141 25.294 -11.471 96 96 88
0.251 25.433 -11.464 98 98 90
0.366 25.567 -11.454 97 96 91
0.483 25.699 -11.445 97 96 91
0.603 25.828 -11.436 99 98 93
0.727 25.953 -11.426 99 98 93
0.855 26.075 -11.414 99 99 91
0.985 26.193 -11.403 98 98 90
1.118 26.309 -11.391 99 99 91
1.253 26.421 -11.381 99 99 91
1.391 26.530 -11.371 97 94 87
1.531 26.634 -11.359 94 91 84
1.674 26.736 -11.350 90 87 80
1.818 26.835 -11.341 101 98 91
1.966 26.929 -11.329 102 99 92
2.116 27.019 -11.318 102 99 92
2.268 27.106 -11.308 98 95 88
2.421 27.189 -11.296 101 98 91
2.577 27.267 -11.285 96 96 88
2.735 27.341 -11.271 95 95 87
2.894 27.412 -11.260 100 97 90
3.055 27.479 -11.249 99 94 88
3.217 27.542 -11.238 97 92 86
3.380 27.601 -11.227 100 95 89
3.545 27.656 -11.215 100 95 89
3.710 27.707 -11.205 100 95 89
3.877 27.756 -11.198 99 96 89
4.044 27.800 -11.189 94 91 84
4.213 27.839 -11.180 91 91 83
4.382 27.873 -11.169 92 93 85
4.553 27.902 -11.157 93 93 85
4.723 27.927 -11.144 91 91 83
4.894 27.950 -11.135 91 91 83
5.066 27.965 -11.120 96 96 88
5.238 27.976 -11.105 92 93 85
5.410 27.981 -11.086 93 94 86
5.582 27.983 -11.071 90 91 83
5.753 27.979 -11.051 91 92 84
5.925 42.254 -39.368 123 128 124
6.447 42.301 -39.471 125 130 126
6.969 42.269 -39.448 126 131 127
7.489 42.211 -39.397 126 131 127
8.007 42.145 -39.355 128 130 127
8.522 42.063 -39.308 129 129 127
9.036 41.982 -39.285 128 128 126
9.549 41.893 -39.273 128 128 126
10.060 41.794 -39.266 126 128 125
10.569 41.686 -39.264 128 130 127
11.073 41.561 -39.255 128 130 127
11.578 41.433 -39.266 127 129 126
12.077 41.288 -39.264 129 131 126
12.572 41.127 -39.256 129 131 126
13.060 40.948 -39.236 129 131 126
13.542 40.753 -39.208 129 131 126
14.020 40.548 -39.182 129 131 128
14.493 40.336 -39.165 129 131 128
14.962 40.113 -39.150 130 132 129
15.428 39.885 -39.151 129 131 128
15.889 39.648 -39.154 131 133 128
16.346 39.402 -39.163 131 133 128
16.797 39.144 -39.171 135 137 132
17.238 38.871 -39.170 134 136 131
17.674 38.590 -39.174 133 134 129
18.102 38.295 -39.172 137 138 133
18.528 37.999 -39.191 138 139 134
18.951 37.697 -39.220 138 139 134
19.372 37.391 -39.268 139 140 135
19.777 37.064 -39.288 155 156 151
20.175 36.729 -39.313 140 141 136
20.563 36.380 -39.330 138 139 134
20.944 36.025 -39.354 138 138 136
21.323 35.666 -39.392 138 138 136
21.692 35.296 -39.430 141 141 139
22.054 34.918 -39.469 137 137 135
22.406 34.531 -39.508 141 141 139
22.750 34.136 -39.551 140 140 138
23.086 33.733 -39.596 143 143 141
23.406 33.317 -39.627 141 141 139
23.709 32.889 -39.642 141 141 139
23.992 32.446 -39.634 143 143 141
24.265 31.998 -39.629 142 142 140
24.528 31.544 -39.625 144 144 142
24.772 31.079 -39.605 139 139 137
25.003 30.609 -39.583 140 140 138
25.217 30.130 -39.549 142 142 140
25.417 29.645 -39.509 135 135 133
25.605 29.157 -39.471 145 145 143
25.786 28.666 -39.444 141 141 139
25.954 28.172 -39.416 142 142 140
26.110 27.673 -39.386 143 143 141
26.254 27.172 -39.360 144 144 142
26.392 26.669 -39.345 146 146 144
26.520 26.164 -39.334 142 142 140
26.635 25.656 -39.324 150 150 148
26.731 25.144 -39.300 147 147 147
26.816 24.630 -39.281 145 145 145
26.899 24.116 -39.281 144 144 144
26.969 23.601 -39.281 142 142 142
27.029 23.084 -39.285 142 144 143
27.071 22.565 -39.281 145 147 146
27.091 22.045 -39.257 149 151 150
27.095 21.525 -39.229 150 152 151
27.082 21.005 -39.189 150 152 149
27.051 20.486 -39.142 150 152 149
27.006 19.969 -39.091 148 150 147
26.946 19.454 -39.037 146 148 145
26.879 18.941 -38.992 148 150 147
26.809 18.429 -38.966 150 152 149
26.726 17.919 -38.941 151 153 150
26.636 17.411 -38.925 151 153 150
26.535 16.905 -38.911 148 152 153
26.421 16.402 -38.897 147 153 153
26.298 15.902 -38.889 148 154 154
26.162 15.405 -38.879 146 152 152
26.011 14.912 -38.865 145 151 151
25.843 14.425 -38.838 141 150 149
25.654 13.946 -38.795 143 152 151
25.455 13.471 -38.753 142 151 150
25.245 13.002 -38.713 144 150 150
25.024 12.539 -38.672 142 148 148
24.787 12.084 -38.623 142 148 148
24.537 11.637 -38.566 140 146 146
24.279 11.194 -38.518 140 146 146
24.011 10.759 -38.469 138 144 144
23.733 10.331 -38.420 140 146 146
23.442 9.912 -38.367 137 143 143
23.139 9.503 -38.306 135 140 144
22.829 9.099 -38.254 135 140 146
22.512 8.703 -38.204 136 141 147
22.180 8.319 -38.144 135 140 146
21.839 7.944 -38.082 132 137 143
21.486 7.582 -38.010 133 138 144
21.126 7.227 -37.941 133 138 144
20.753 6.887 -37.861 133 138 144
20.370 6.560 -37.771 134 139 142
19.984 6.238 -37.696 140 145 148
19.596 5.921 -37.633 140 145 148
19.201 5.614 -37.572 139 144 147
18.800 5.316 -37.512 147 152 155
18.390 5.031 -37.447 138 143 146
17.975 4.757 -37.382 138 143 146
17.555 4.491 -37.324 140 145 148
17.128 4.237 -37.260 141 146 149
16.698 3.992 -37.203 136 141 144
16.263 3.757 -37.149 142 147 150
15.824 3.530 -37.100 151 156 159
15.379 3.316 -37.048 136 141 144
14.930 3.114 -36.994 137 142 145
14.478 2.921 -36.946 137 142 145
14.021 2.740 -36.896 143 148 151
13.560 2.572 -36.843 138 142 145
13.096 2.412 -36.796 137 142 145
12.628 2.270 -36.740 136 144 146
12.158 2.137 -36.686 135 145 146
11.683 2.022 -36.621 148 163 160
11.207 1.917 -36.559 156 173 167
10.728 1.827 -36.491 151 168 162
10.247 1.758 -36.404 149 166 160
9.764 1.704 -36.312 146 167 160
9.282 1.658 -36.229 144 163 157
8.799 1.629 -36.135 141 157 154
8.317 1.610 -36.046 138 154 153
7.837 1.590 -35.981 137 152 147
7.358 1.575 -35.930 137 152 147
6.880 1.562 -35.898 138 153 148
6.402 1.557 -35.874 138 153 148
5.925 1.562 -35.852 137 152 149
5.448 1.583 -35.823 137 151 151
4.972 1.623 -35.780 136 150 150
4.499 1.682 -35.720 135 149 149
4.030 1.767 -35.634 134 149 146
3.564 1.869 -35.537 129 144 141
3.103 1.982 -35.439 128 143 140
2.646 2.109 -35.338 128 143 140
2.194 2.250 -35.229 128 143 138
1.748 2.406 -35.110 129 144 139
1.309 2.579 -34.981 132 147 142
0.877 2.765 -34.846 130 145 140
0.452 2.964 -34.704 134 146 142
0.033 3.172 -34.563 132 144 140
-0.378 3.390 -34.423 130 142 138
-0.783 3.616 -34.284 128 140 136
-1.180 3.853 -34.144 129 144 139
-1.570 4.097 -34.007 131 143 139
-1.955 4.344 -33.881 130 141 137
-2.334 4.599 -33.758 131 140 137
-2.703 4.865 -33.629 132 138 138
-3.064 5.138 -33.502 132 138 138
-3.417 5.420 -33.375 131 137 137
