ply
format ascii 1.0
element vertex 1432
property float x
property float y
property float z
property uchar red
property uchar green
property uchar blue
end_header
-35.895 -33.820 0.083 183 169 158
-35.801 -33.841 0.091 186 172 163
-35.707 -33.858 0.095 187 172 165
-35.614 -33.878 0.100 184 169 162
-35.522 -33.903 0.106 186 171 164
-35.431 -33.929 0.112 186 171 164
-35.341 -33.958 0.118 184 171 163
-35.252 -33.989 0.124 201 188 180
-35.163 -34.019 0.128 187 174 166
-35.078 -34.058 0.136 188 175 167
-34.994 -34.102 0.145 195 180 173
-34.911 -34.144 0.152 190 175 168
-34.828 -34.187 0.159 188 173 166
-34.746 -34.228 0.164 187 172 165
-34.665 -34.273 0.170 186 171 164
-34.587 -34.321 0.176 187 172 165
-34.510 -34.370 0.183 189 174 167
-34.436 -34.423 0.190 187 172 165
-34.361 -34.475 0.196 182 169 161
-34.290 -34.532 0.204 185 172 163
-34.219 -34.587 0.209 192 177 170
-34.148 -34.641 0.213 188 174 165
-34.078 -34.696 0.217 186 171 164
-34.010 -34.754 0.222 175 162 154
-33.945 -34.815 0.228 177 164 156
-33.875 -34.869 0.228 142 129 123
-33.797 -34.913 0.221 104 94 93
-33.729 -34.969 0.220 100 91 92
-33.661 -35.026 0.219 93 84 85
-33.591 -35.081 0.216 87 78 79
-33.510 -35.126 0.203 80 71 72
-33.353 -35.100 0.139 67 56 52
-33.124 -35.017 0.029 80 63 55
-32.756 -34.829 -0.169 76 56 45
-32.546 -34.797 -0.258 79 61 39
-32.412 -34.834 -0.298 130 103 73
-32.338 -34.922 -0.301 175 142 101
-32.293 -35.030 -0.288 181 151 113
-32.245 -35.135 -0.278 189 158 127
-32.204 -35.244 -0.266 195 162 127
-32.167 -35.353 -0.253 194 165 131
-32.132 -35.462 -0.241 195 166 136
-32.094 -35.568 -0.232 194 167 137
-32.047 -35.669 -0.230 196 164 126
-32.016 -35.777 -0.220 190 161 121
-31.967 -35.876 -0.221 154 138 112
-31.921 -35.976 -0.223 99 89 64
-31.890 -36.083 -0.218 158 131 88
-31.865 -36.191 -0.211 209 176 125
-31.850 -36.302 -0.200 211 176 136
-31.849 -36.416 -0.183 205 167 128
-31.846 -36.528 -0.169 203 165 126
-31.837 -36.637 -0.160 194 156 119
-31.824 -36.744 -0.154 195 155 119
-31.816 -36.852 -0.147 197 159 120
-31.806 -36.959 -0.142 185 152 121
-31.797 -37.065 -0.138 163 125 102
-31.809 -37.174 -0.125 249 217 194
-31.810 -37.280 -0.119 255 225 197
-31.829 -37.387 -0.105 255 227 205
-31.852 -37.494 -0.090 255 230 206
-31.872 -37.598 -0.079 255 227 202
-31.888 -37.702 -0.070 255 231 211
-31.894 -37.804 -0.068 255 232 211
-31.891 -37.908 -0.071 254 223 195
-31.873 -38.012 -0.083 255 235 212
-31.866 -38.117 -0.091 255 235 201
-31.908 -38.217 -0.076 172 135 109
-31.910 -38.321 -0.082 151 115 99
-31.861 -38.435 -0.114 135 103 80
-31.941 -38.526 -0.084 122 89 70
-31.958 -38.629 -0.087 81 48 31
-31.931 -38.742 -0.112 158 127 106
-31.871 -38.868 -0.157 159 131 109
-31.902 -38.971 -0.156 228 207 188
-31.950 -39.068 -0.148 214 207 197
-31.999 -39.164 -0.140 237 229 218
-32.054 -39.257 -0.131 217 205 189
-32.144 -39.334 -0.104 198 174 148
-32.238 -39.407 -0.076 255 233 207
-32.304 -39.490 -0.063 112 81 60
-32.363 -39.575 -0.055 223 192 172
-32.438 -39.651 -0.040 240 204 168
-32.483 -39.743 -0.042 228 197 169
-32.536 -39.829 -0.041 240 213 196
-32.599 -39.910 -0.035 229 194 174
-32.675 -39.980 -0.023 223 190 171
-32.743 -40.055 -0.016 96 64 49
-32.863 -40.092 0.021 175 145 134
-32.940 -40.157 0.032 164 140 130
-33.009 -40.226 0.037 105 82 66
-33.078 -40.296 0.041 145 118 97
-33.142 -40.370 0.041 99 82 64
-33.207 -40.443 0.039 77 59 37
-33.273 -40.514 0.038 70 48 24
-33.340 -40.585 0.036 52 34 14
-33.334 -40.737 -0.020 76 63 31
-32.996 -41.283 -0.333 88 82 48
-32.841 -41.656 -0.523 76 78 56
-32.865 -41.828 -0.581 55 64 47
-32.937 -41.948 -0.607 25 35 24
-33.018 -42.058 -0.628 67 66 48
-33.080 -42.200 -0.668 19 16 0
-33.142 -42.350 -0.713 41 46 26
-33.223 -42.478 -0.746 47 59 39
-33.312 -42.598 -0.775 42 44 31
-33.411 -42.706 -0.799 30 28 13
-33.507 -42.825 -0.829 78 75 60
-33.611 -42.934 -0.855 117 114 99
-33.719 -43.040 -0.880 45 49 26
-33.824 -43.161 -0.914 87 81 55
-33.936 -43.275 -0.946 62 57 35
-34.047 -43.399 -0.984 62 61 43
-34.169 -43.502 -1.013 125 124 106
-34.289 -43.625 -1.052 30 39 22
-34.412 -43.751 -1.095 23 35 11
-34.543 -43.862 -1.132 44 55 25
-34.682 -43.955 -1.161 49 57 36
-34.823 -44.051 -1.193 62 73 57
-34.966 -44.153 -1.229 75 82 66
-35.116 -44.242 -1.261 55 59 42
-35.268 -44.331 -1.294 93 104 88
-35.423 -44.429 -1.334 39 52 35
-35.583 -44.513 -1.368 41 53 39
-35.748 -44.583 -1.398 23 35 25
-35.915 -44.661 -1.433 39 51 41
-36.086 -44.742 -1.472 29 37 24
-36.260 -44.815 -1.509 28 37 18
-36.438 -44.878 -1.543 53 62 41
-36.619 -44.927 -1.573 28 37 20
-36.802 -44.974 -1.604 49 57 42
-36.988 -45.017 -1.635 40 48 33
-37.176 -45.048 -1.663 43 51 36
-37.366 -45.079 -1.692 74 82 67
-37.559 -45.107 -1.723 72 80 65
-37.753 -45.126 -1.752 57 63 49
-37.946 -45.126 -1.775 55 61 49
-38.141 -45.129 -1.800 64 67 58
-38.343 -45.141 -1.834 27 29 15
-38.551 -45.164 -1.876 49 59 35
-38.759 -45.174 -1.914 48 63 30
-38.963 -45.162 -1.943 142 152 115
-39.165 -45.135 -1.968 60 71 37
-39.362 -45.092 -1.987 82 95 65
-39.559 -45.044 -2.006 43 50 32
-39.751 -44.983 -2.020 46 51 45
-39.938 -44.909 -2.030 34 38 39
-40.124 -44.830 -2.040 8 13 9
-40.312 -44.753 -2.054 54 61 53
-40.497 -44.668 -2.066 115 120 113
-40.681 -44.578 -2.079 50 56 42
-40.863 -44.484 -2.091 102 107 85
-41.034 -44.373 -2.096 77 80 71
-41.200 -44.254 -2.099 59 67 54
-41.373 -44.144 -2.110 86 98 76
-41.545 -44.030 -2.122 28 42 9
-41.710 -43.907 -2.130 101 113 73
-41.862 -43.769 -2.131 118 132 97
-42.010 -43.625 -2.131 74 95 54
-42.153 -43.478 -2.131 84 97 54
-42.271 -43.307 -2.117 79 75 46
-42.385 -43.135 -2.102 17 14 7
-42.521 -42.983 -2.106 129 135 123
-42.667 -42.837 -2.117 93 108 69
-42.796 -42.678 -2.120 117 119 82
-42.916 -42.512 -2.120 51 54 25
-43.039 -42.348 -2.124 69 79 45
-43.154 -42.178 -2.126 109 120 80
-43.261 -42.002 -2.126 97 113 66
-43.332 -41.806 -2.107 12 35 0
-43.427 -41.625 -2.105 120 143 91
-43.529 -41.448 -2.110 103 120 66
-43.610 -41.260 -2.104 16 30 0
-43.674 -41.065 -2.093 138 153 112
-43.722 -40.864 -2.076 46 55 34
-43.797 -40.676 -2.076 81 94 68
-43.893 -40.495 -2.089 133 147 111
-43.972 -40.307 -2.096 91 100 57
-44.026 -40.110 -2.092 130 139 94
-44.076 -39.913 -2.088 106 118 72
-44.122 -39.715 -2.086 46 58 8
-44.165 -39.516 -2.083 57 67 14
-44.179 -39.311 -2.069 142 139 106
-44.187 -39.107 -2.055 105 105 79
-44.207 -38.906 -2.049 68 74 48
-44.215 -38.704 -2.039 40 48 24
-44.225 -38.503 -2.033 49 50 32
-44.233 -38.302 -2.029 34 38 5
-44.231 -38.102 -2.021 92 98 62
-44.220 -37.901 -2.012 98 104 66
-44.201 -37.702 -2.002 48 55 21
-44.184 -37.503 -1.995 65 71 33
-44.169 -37.304 -1.991 98 105 64
-44.140 -37.107 -1.983 20 29 0
-44.105 -36.912 -1.974 71 88 46
-44.061 -36.718 -1.963 80 98 60
-44.039 -36.522 -1.965 88 99 65
-44.007 -36.327 -1.965 73 81 42
-44.045 -36.118 -2.002 51 56 34
-45.368 -35.617 -2.692 99 100 102
-45.399 -35.369 -2.735 187 189 188
-45.357 -35.136 -2.744 175 177 172
-45.284 -34.911 -2.740 172 174 171
-45.185 -34.696 -2.726 208 209 204
-44.065 -34.846 -2.179 107 114 80
-43.532 -34.829 -1.936 102 120 70
-43.449 -34.651 -1.930 120 140 91
-43.357 -34.479 -1.922 63 80 44
-43.255 -34.311 -1.911 87 107 58
-43.153 -34.144 -1.902 17 37 0
-43.028 -33.991 -1.882 73 79 51
-42.903 -33.839 -1.864 102 105 78
-42.795 -33.680 -1.857 75 79 46
-42.672 -33.531 -1.844 90 94 61
-42.548 -33.384 -1.833 72 74 50
-42.413 -33.245 -1.816 103 103 75
-42.267 -33.117 -1.795 106 107 67
-42.125 -32.989 -1.778 104 103 59
-41.994 -32.853 -1.769 84 80 6
-41.831 -32.746 -1.741 182 173 140
-41.664 -32.646 -1.713 77 75 27
-41.500 -32.547 -1.687 146 138 102
-41.292 -32.495 -1.631 170 152 128
-41.129 -32.404 -1.607 240 219 198
-40.992 -32.289 -1.603 248 228 204
-40.840 -32.190 -1.589 249 228 207
-40.689 -32.093 -1.578 252 230 209
-40.539 -31.995 -1.570 254 232 211
-40.388 -31.901 -1.561 254 232 211
-40.236 -31.809 -1.554 254 231 213
-40.074 -31.732 -1.540 242 219 201
-39.915 -31.655 -1.530 229 202 183
-39.751 -31.587 -1.515 210 181 163
-39.591 -31.514 -1.507 182 151 133
-39.431 -31.444 -1.499 154 116 103
-39.261 -31.394 -1.482 151 115 101
-39.020 -31.498 -1.384 99 64 58
-38.443 -32.383 -0.869 41 32 33
-38.317 -32.315 -0.875 39 50 52
-38.190 -32.246 -0.884 61 72 74
-38.061 -32.183 -0.891 66 76 78
-37.931 -32.116 -0.901 50 60 62
-37.800 -32.050 -0.912 21 26 30
-37.666 -31.990 -0.923 9 14 17
-37.535 -31.914 -0.942 11 16 19
-37.399 -31.853 -0.956 8 13 16
-37.260 -31.797 -0.969 47 52 55
-37.120 -31.743 -0.982 8 14 14
-36.977 -31.694 -0.995 13 21 23
-36.832 -31.653 -1.005 16 26 27
-36.681 -31.653 -0.997 50 61 65
-36.533 -31.635 -1.000 50 65 70
-36.385 -31.604 -1.010 56 71 74
-36.238 -31.501 -1.059 4 15 19
-36.086 -33.468 -0.175 184 171 155
-35.982 -33.487 -0.165 185 172 156
-35.880 -33.509 -0.156 185 171 158
-35.778 -33.535 -0.146 186 172 161
-35.677 -33.555 -0.140 185 170 163
-35.578 -33.580 -0.133 186 171 164
-35.479 -33.610 -0.125 185 170 163
-35.381 -33.637 -0.119 185 170 163
-35.283 -33.667 -0.113 182 167 160
-35.187 -33.697 -0.108 185 170 163
-35.092 -33.733 -0.101 185 170 163
-35.000 -33.777 -0.092 188 173 166
-34.909 -33.821 -0.083 192 177 170
-34.817 -33.862 -0.077 189 174 167
-34.729 -33.908 -0.069 189 174 167
-34.639 -33.952 -0.064 188 173 166
-34.552 -33.998 -0.059 189 174 167
-34.466 -34.046 -0.054 190 175 168
-34.381 -34.098 -0.048 188 173 166
-34.300 -34.154 -0.040 186 171 164
-34.220 -34.210 -0.033 187 172 165
-34.142 -34.271 -0.025 185 170 163
-34.064 -34.329 -0.020 184 169 162
-33.986 -34.385 -0.016 188 173 166
-33.909 -34.444 -0.012 189 176 168
-33.835 -34.506 -0.008 185 172 164
-33.763 -34.570 -0.002 181 168 160
-33.693 -34.635 0.002 175 162 154
-33.617 -34.693 0.001 160 150 148
-33.545 -34.756 0.002 109 99 98
-33.477 -34.823 0.004 104 94 93
-33.410 -34.891 0.007 101 91 90
-33.336 -34.952 0.003 87 78 79
-33.242 -34.994 -0.017 81 73 71
-33.102 -34.997 -0.068 64 53 47
-32.823 -34.887 -0.213 53 40 31
-32.599 -34.840 -0.317 60 40 31
-32.446 -34.861 -0.372 79 47 24
-32.352 -34.933 -0.388 233 191 149
-32.298 -35.034 -0.380 229 188 144
-32.250 -35.139 -0.370 226 189 147
-32.206 -35.244 -0.359 225 188 146
-32.162 -35.350 -0.350 218 181 139
-32.120 -35.455 -0.341 219 182 140
-32.081 -35.561 -0.333 219 184 142
-32.037 -35.663 -0.329 229 188 144
-31.995 -35.767 -0.325 226 192 157
-31.957 -35.871 -0.320 133 119 106
-31.920 -35.976 -0.316 129 110 103
-31.896 -36.085 -0.306 226 185 155
-31.881 -36.197 -0.294 249 206 164
-31.867 -36.308 -0.282 242 203 164
-31.856 -36.418 -0.271 244 201 159
-31.849 -36.529 -0.258 239 196 153
-31.840 -36.638 -0.248 240 197 154
-31.830 -36.746 -0.241 242 199 156
-31.819 -36.853 -0.235 246 200 151
-31.797 -36.957 -0.236 251 222 192
-31.782 -37.063 -0.235 31 0 0
-31.786 -37.171 -0.225 199 162 133
-31.784 -37.278 -0.221 202 167 137
-31.784 -37.384 -0.216 206 171 141
-31.794 -37.491 -0.207 211 176 146
-31.801 -37.596 -0.201 212 177 147
-31.814 -37.702 -0.194 216 182 155
-31.828 -37.806 -0.188 210 175 147
-31.860 -37.909 -0.173 208 173 145
-31.847 -38.014 -0.183 183 151 136
-31.842 -38.120 -0.191 106 66 41
-31.896 -38.218 -0.168 135 96 65
-31.916 -38.320 -0.165 137 102 72
-31.871 -38.433 -0.197 220 190 164
-31.977 -38.519 -0.152 204 161 127
-32.011 -38.617 -0.145 155 109 73
-32.031 -38.717 -0.147 227 182 149
-32.022 -38.826 -0.166 107 62 31
-32.035 -38.930 -0.174 102 70 49
-32.036 -39.039 -0.191 66 44 31
-32.064 -39.140 -0.194 142 106 80
-32.131 -39.227 -0.177 148 98 61
-32.215 -39.305 -0.152 173 126 84
-32.278 -39.390 -0.140 202 159 117
-32.332 -39.477 -0.133 133 93 58
-32.381 -39.567 -0.131 120 80 54
-32.463 -39.638 -0.110 149 110 69
-32.513 -39.725 -0.109 199 164 132
-32.538 -39.828 -0.125 82 49 30
-32.611 -39.902 -0.113 171 128 109
-32.677 -39.979 -0.106 164 128 106
-32.726 -40.068 -0.111 122 84 65
-32.797 -40.141 -0.103 217 172 153
-32.863 -40.217 -0.100 232 190 166
-32.926 -40.295 -0.100 238 200 177
-33.002 -40.361 -0.092 239 195 170
-33.081 -40.425 -0.083 233 200 181
-33.159 -40.488 -0.075 179 145 118
-33.273 -40.514 -0.043 255 226 183
-33.359 -40.566 -0.031 253 216 171
-33.430 -40.632 -0.031 255 221 172
-33.499 -40.700 -0.034 166 127 72
-33.475 -40.883 -0.114 253 236 206
-32.973 -41.690 -0.599 34 28 12
-33.034 -41.817 -0.632 42 36 22
-33.113 -41.922 -0.652 91 76 57
-33.222 -41.988 -0.648 216 208 189
-33.178 -42.294 -0.792 61 64 47
-33.245 -42.440 -0.838 46 54 39
-33.336 -42.555 -0.865 47 48 40
-33.436 -42.658 -0.887 128 128 116
-33.528 -42.784 -0.923 64 64 52
-33.632 -42.889 -0.948 51 53 39
-33.744 -42.984 -0.968 64 69 46
-33.868 -43.056 -0.977 132 127 105
-33.985 -43.148 -0.999 136 133 116
-34.059 -43.366 -1.090 85 87 73
-34.177 -43.481 -1.126 33 35 22
-34.300 -43.588 -1.159 39 47 34
-34.423 -43.709 -1.202 74 86 66
-34.553 -43.820 -1.240 34 44 20
-34.691 -43.911 -1.269 47 55 40
-34.833 -43.999 -1.298 51 59 48
-34.976 -44.099 -1.335 48 51 40
-35.123 -44.190 -1.369 67 71 57
-35.275 -44.278 -1.404 9 20 6
-35.429 -44.372 -1.443 39 50 36
-35.588 -44.456 -1.479 49 60 46
-35.751 -44.522 -1.508 39 49 40
-35.917 -44.586 -1.538 45 54 49
-36.086 -44.672 -1.580 57 65 52
-36.259 -44.755 -1.624 50 59 40
-36.436 -44.821 -1.661 63 72 51
-36.614 -44.866 -1.690 40 49 32
-36.796 -44.912 -1.722 51 59 44
-36.980 -44.953 -1.753 53 61 46
-37.166 -44.987 -1.783 52 60 45
-37.356 -45.019 -1.815 47 55 40
-37.547 -45.047 -1.847 50 58 43
-37.739 -45.065 -1.876 66 74 61
-37.929 -45.060 -1.897 86 92 82
-38.118 -45.044 -1.913 30 33 24
-38.313 -45.042 -1.940 37 32 28
-38.521 -45.072 -1.987 73 75 62
-38.735 -45.105 -2.039 40 54 28
-38.948 -45.122 -2.085 59 70 38
-39.156 -45.113 -2.121 43 54 22
-39.351 -45.068 -2.139 56 67 37
-39.538 -45.001 -2.147 45 53 32
-39.719 -44.919 -2.150 23 28 22
-39.905 -44.846 -2.161 47 53 49
-40.093 -44.776 -2.176 28 36 25
-40.284 -44.705 -2.194 32 40 25
-40.469 -44.623 -2.208 20 28 13
-40.659 -44.546 -2.228 50 62 38
-40.842 -44.455 -2.243 116 125 94
-41.008 -44.339 -2.245 63 67 52
-41.168 -44.213 -2.243 57 66 49
-41.336 -44.099 -2.251 38 50 26
-41.506 -43.985 -2.263 180 189 160
-41.670 -43.863 -2.271 45 50 18
-41.820 -43.724 -2.271 117 127 102
-41.965 -43.581 -2.271 133 148 117
-42.101 -43.428 -2.266 123 130 97
-42.213 -43.255 -2.248 27 27 1
-42.326 -43.084 -2.233 0 3 0
-42.467 -42.938 -2.240 139 150 133
-42.620 -42.801 -2.257 79 101 54
-42.750 -42.644 -2.262 57 64 23
-42.864 -42.475 -2.259 39 43 18
-42.980 -42.308 -2.259 119 135 96
-43.088 -42.135 -2.257 112 128 81
-43.197 -41.964 -2.259 61 77 32
-43.287 -41.781 -2.251 63 83 48
-43.383 -41.602 -2.250 42 59 25
-43.492 -41.430 -2.259 22 37 0
-43.571 -41.242 -2.253 66 79 35
-43.626 -41.044 -2.237 14 31 0
-43.687 -40.850 -2.226 70 83 37
-43.763 -40.663 -2.227 114 129 86
-43.846 -40.478 -2.234 82 96 60
-43.920 -40.290 -2.238 114 121 87
-43.971 -40.093 -2.232 63 70 39
-44.027 -39.899 -2.233 128 137 108
-44.076 -39.703 -2.231 16 25 0
-44.113 -39.504 -2.226 60 69 42
-44.117 -39.299 -2.206 62 63 47
-44.122 -39.096 -2.190 16 20 5
-44.154 -38.898 -2.190 46 58 38
-44.169 -38.699 -2.184 19 31 9
-44.173 -38.498 -2.174 52 57 37
-44.174 -38.298 -2.166 39 47 10
-44.168 -38.099 -2.156 109 117 80
-44.152 -37.900 -2.144 118 125 91
-44.134 -37.702 -2.134 73 80 49
-44.112 -37.504 -2.124 87 90 59
-44.090 -37.308 -2.116 90 94 61
-44.057 -37.114 -2.106 96 104 80
-44.021 -36.920 -2.095 54 63 42
-43.977 -36.728 -2.084 26 33 15
-43.960 -36.533 -2.089 22 26 9
-43.932 -36.340 -2.090 88 93 70
-44.001 -36.127 -2.145 129 134 114
-45.311 -35.630 -2.856 89 91 90
-45.335 -35.385 -2.898 189 191 188
-45.288 -35.155 -2.904 172 174 169
-45.212 -34.933 -2.899 173 175 172
-45.115 -34.719 -2.884 208 209 204
-44.149 -34.816 -2.399 119 126 92
-43.481 -34.849 -2.071 76 94 42
-43.396 -34.674 -2.064 76 94 46
-43.300 -34.503 -2.054 29 41 5
-43.199 -34.337 -2.042 22 35 0
-43.100 -34.171 -2.034 77 94 42
-42.968 -34.023 -2.008 60 63 36
-42.851 -33.869 -1.994 73 73 45
-42.747 -33.709 -1.989 105 109 74
-42.629 -33.558 -1.978 109 113 80
-42.511 -33.409 -1.969 101 109 72
-42.373 -33.273 -1.950 74 80 44
-42.211 -33.159 -1.917 194 194 158
-42.055 -33.043 -1.889 211 206 168
-41.945 -32.893 -1.894 85 75 3
-41.779 -32.791 -1.862 210 195 172
-41.614 -32.691 -1.833 132 127 87
-41.452 -32.593 -1.806 206 197 168
-41.276 -32.512 -1.770 240 226 200
-41.120 -32.414 -1.750 250 233 213
-40.982 -32.299 -1.745 245 228 208
-40.835 -32.196 -1.735 243 226 206
-40.687 -32.095 -1.726 243 226 206
-40.538 -31.997 -1.717 248 231 211
-40.387 -31.902 -1.709 248 231 211
-40.233 -31.813 -1.700 250 233 213
-40.075 -31.731 -1.689 251 234 214
-39.918 -31.650 -1.679 250 233 213
-39.759 -31.573 -1.670 243 226 206
-39.599 -31.501 -1.661 244 227 207
-39.435 -31.436 -1.649 243 226 206
-39.272 -31.372 -1.640 243 227 204
-39.119 -31.289 -1.643 255 226 215
-38.444 -32.381 -0.990 18 4 4
-38.305 -32.344 -0.979 43 52 51
-38.174 -32.289 -0.980 25 34 33
-38.043 -32.232 -0.984 56 65 64
-37.912 -32.173 -0.991 70 79 78
-37.780 -32.115 -0.999 64 69 72
-37.647 -32.059 -1.007 56 61 64
-37.518 -31.983 -1.028 35 40 43
-37.388 -31.903 -1.053 28 33 36
-37.251 -31.845 -1.067 6 10 11
-37.111 -31.792 -1.081 1 7 7
-36.969 -31.744 -1.093 15 23 25
-36.826 -31.702 -1.105 17 27 29
-36.677 -31.703 -1.096 47 57 59
-36.530 -31.682 -1.100 54 62 65
-36.383 -31.653 -1.111 58 66 69
-36.237 -31.552 -1.160 14 22 25
-36.086 -33.144 -0.436 184 172 158
-35.975 -33.173 -0.421 186 174 160
-35.864 -33.193 -0.413 183 171 159
-35.755 -33.218 -0.403 185 172 163
-35.647 -33.247 -0.392 196 181 174
-35.540 -33.275 -0.384 188 173 166
-35.433 -33.303 -0.377 189 174 167
-35.328 -33.337 -0.368 187 172 165
-35.224 -33.370 -0.361 182 167 160
-35.120 -33.403 -0.355 185 170 163
-35.018 -33.439 -0.349 188 173 166
-34.919 -33.485 -0.339 187 172 165
-34.822 -33.537 -0.326 191 178 170
-34.724 -33.579 -0.321 187 174 166
-34.629 -33.630 -0.311 188 175 167
-34.534 -33.679 -0.305 189 176 168
-34.440 -33.728 -0.299 179 166 160
-34.347 -33.779 -0.293 184 171 165
-34.256 -33.832 -0.288 183 170 164
-34.167 -33.890 -0.281 181 168 162
-34.082 -33.952 -0.272 176 163 157
-33.997 -34.015 -0.265 179 166 160
-33.914 -34.078 -0.258 182 169 163
-33.830 -34.139 -0.254 180 167 161
-33.744 -34.197 -0.253 182 169 161
-33.663 -34.261 -0.249 178 165 157
-33.584 -34.329 -0.244 170 157 149
-33.510 -34.401 -0.238 171 158 150
-33.433 -34.470 -0.235 159 148 144
-33.358 -34.539 -0.232 95 84 80
-33.287 -34.613 -0.228 93 82 78
-33.222 -34.693 -0.220 84 73 69
-33.157 -34.773 -0.214 87 79 77
-33.089 -34.848 -0.212 68 60 58
-32.999 -34.903 -0.227 76 67 62
-32.862 -34.921 -0.276 77 68 59
-32.663 -34.893 -0.367 20 5 0
-32.497 -34.901 -0.433 84 57 38
-32.396 -34.965 -0.456 238 196 158
-32.337 -35.061 -0.451 240 197 154
-32.292 -35.167 -0.439 239 197 157
-32.239 -35.265 -0.434 236 194 154
-32.189 -35.366 -0.428 235 193 153
-32.146 -35.470 -0.420 234 192 152
-32.110 -35.576 -0.410 240 199 155
-32.074 -35.682 -0.400 244 202 162
-32.035 -35.786 -0.395 247 217 193
-31.981 -35.882 -0.400 28 17 15
-31.956 -35.991 -0.389 37 17 6
-31.939 -36.102 -0.376 241 203 166
-31.924 -36.212 -0.363 231 194 150
-31.911 -36.322 -0.350 229 195 149
-31.902 -36.432 -0.337 229 191 146
-31.895 -36.542 -0.324 226 187 146
-31.889 -36.650 -0.312 225 186 145
-31.882 -36.758 -0.303 226 187 146
-31.875 -36.864 -0.295 236 188 142
-31.847 -36.966 -0.300 177 150 129
-31.815 -37.068 -0.308 17 0 0
-31.826 -37.176 -0.294 230 191 158
-31.825 -37.282 -0.288 232 196 164
-31.822 -37.387 -0.285 231 196 166
-31.823 -37.492 -0.281 228 193 163
-31.828 -37.597 -0.276 233 198 168
-31.839 -37.702 -0.270 237 200 171
-31.853 -37.805 -0.263 235 199 167
-31.875 -37.908 -0.254 234 200 173
-31.862 -38.013 -0.264 99 72 61
-31.858 -38.118 -0.271 125 78 58
-31.920 -38.215 -0.244 217 168 125
-31.942 -38.316 -0.239 221 180 128
-31.881 -38.431 -0.281 193 157 121
-31.966 -38.521 -0.245 248 215 184
-32.022 -38.614 -0.226 187 154 121
-32.042 -38.714 -0.228 219 188 160
-32.047 -38.819 -0.240 106 76 52
-32.066 -38.921 -0.245 105 85 76
-32.095 -39.020 -0.246 94 75 69
-32.148 -39.110 -0.235 169 125 98
-32.213 -39.195 -0.219 197 135 94
-32.274 -39.280 -0.205 208 155 111
-32.329 -39.367 -0.197 235 187 141
-32.374 -39.457 -0.195 215 170 128
-32.407 -39.553 -0.201 211 170 138
-32.484 -39.627 -0.183 212 173 140
-32.538 -39.711 -0.179 226 195 167
-32.568 -39.810 -0.192 86 55 37
-32.632 -39.889 -0.185 215 172 155
-32.689 -39.971 -0.184 214 176 157
-32.742 -40.056 -0.186 217 175 153
-32.809 -40.132 -0.181 209 159 136
-32.875 -40.207 -0.177 212 163 133
-32.944 -40.280 -0.172 212 166 140
-33.019 -40.347 -0.165 218 169 139
-33.095 -40.412 -0.158 203 165 146
-33.168 -40.480 -0.154 142 102 76
-33.263 -40.524 -0.134 234 189 156
-33.350 -40.575 -0.121 227 195 156
-33.165 -40.924 -0.325 101 83 69
-32.904 -41.390 -0.604 69 65 66
-32.844 -41.652 -0.731 39 35 32
-32.891 -41.795 -0.776 60 59 57
-32.977 -41.893 -0.790 43 41 42
-33.075 -41.976 -0.795 17 12 8
-33.177 -42.055 -0.799 48 43 37
-33.207 -42.247 -0.876 55 55 47
-33.270 -42.400 -0.928 48 51 44
-33.356 -42.520 -0.960 57 59 54
-33.448 -42.637 -0.991 41 44 35
-33.540 -42.758 -1.026 39 45 35
-33.645 -42.862 -1.051 23 30 22
-33.759 -42.950 -1.069 44 55 39
-33.888 -43.008 -1.070 82 82 72
-33.968 -43.193 -1.146 39 42 33
-34.065 -43.350 -1.207 41 48 40
-34.183 -43.460 -1.242 31 41 33
-34.311 -43.552 -1.268 24 30 26
-34.436 -43.663 -1.307 56 63 56
-34.566 -43.769 -1.343 57 67 56
-34.704 -43.856 -1.372 28 38 30
-34.845 -43.942 -1.401 41 46 39
-34.985 -44.043 -1.440 45 50 44
-35.132 -44.134 -1.476 45 52 45
-35.282 -44.222 -1.512 22 29 21
-35.435 -44.311 -1.550 45 53 42
-35.592 -44.390 -1.585 39 47 36
-35.754 -44.452 -1.612 42 49 42
-35.919 -44.510 -1.640 23 29 27
-36.086 -44.606 -1.691 63 70 62
-36.257 -44.692 -1.738 24 32 17
-36.432 -44.752 -1.773 44 53 36
-36.609 -44.799 -1.804 22 30 17
-36.789 -44.843 -1.836 36 44 31
-36.971 -44.881 -1.867 35 43 30
-37.156 -44.919 -1.900 39 47 34
-37.345 -44.956 -1.936 46 54 41
-37.535 -44.985 -1.969 60 71 55
-37.725 -45.002 -1.999 72 83 67
-37.913 -44.997 -2.020 65 73 60
-38.099 -44.977 -2.035 47 53 43
-38.292 -44.976 -2.063 54 51 36
-38.500 -45.009 -2.113 54 56 34
-38.714 -45.046 -2.169 73 87 54
-38.926 -45.064 -2.218 65 81 42
-39.127 -45.043 -2.248 66 76 49
-39.319 -44.995 -2.264 51 59 36
-39.510 -44.941 -2.280 53 62 43
-39.693 -44.868 -2.288 41 48 40
-39.876 -44.792 -2.297 57 65 50
-40.061 -44.718 -2.310 31 40 23
-40.250 -44.649 -2.330 71 80 63
-40.435 -44.570 -2.345 25 34 17
-40.625 -44.495 -2.367 54 67 39
-40.814 -44.415 -2.389 52 64 24
-40.981 -44.302 -2.392 61 70 41
-41.141 -44.179 -2.392 59 72 46
-41.305 -44.061 -2.397 60 70 43
-41.464 -43.936 -2.401 60 63 42
-41.620 -43.808 -2.405 80 81 63
-41.770 -43.672 -2.406 36 41 21
-41.918 -43.534 -2.409 68 78 44
-42.064 -43.393 -2.412 50 56 18
-42.191 -43.235 -2.404 136 143 102
-42.306 -43.067 -2.391 79 94 55
-42.442 -42.918 -2.395 25 40 0
-42.600 -42.785 -2.417 114 140 75
-42.722 -42.623 -2.416 66 86 27
-42.828 -42.450 -2.408 45 57 17
-42.947 -42.286 -2.410 23 47 0
-43.060 -42.118 -2.412 41 60 5
-43.147 -41.934 -2.400 12 25 0
-43.228 -41.748 -2.388 141 153 131
-43.309 -41.562 -2.378 40 47 29
-43.413 -41.390 -2.385 57 68 34
-43.514 -41.215 -2.392 40 57 5
-43.596 -41.031 -2.391 86 104 42
-43.676 -40.845 -2.391 140 156 93
-43.744 -40.655 -2.387 66 79 26
-43.794 -40.460 -2.376 116 126 91
-43.858 -40.269 -2.375 25 36 6
-43.910 -40.075 -2.370 76 87 57
-43.961 -39.881 -2.368 64 75 43
-44.000 -39.684 -2.361 68 79 49
-44.030 -39.486 -2.352 48 57 38
-44.033 -39.282 -2.331 40 45 39
-44.044 -39.082 -2.317 8 17 12
-44.080 -38.887 -2.320 21 35 22
-44.099 -38.690 -2.316 88 101 84
-44.108 -38.492 -2.309 59 67 44
-44.109 -38.293 -2.300 146 154 115
-44.099 -38.095 -2.288 108 113 81
-44.070 -37.898 -2.269 31 34 7
-44.029 -37.702 -2.246 131 133 111
-44.010 -37.507 -2.237 96 94 71
-44.009 -37.312 -2.240 112 115 86
-43.987 -37.119 -2.235 85 94 65
-43.953 -36.927 -2.225 95 101 73
-43.911 -36.736 -2.215 56 61 38
-43.898 -36.543 -2.222 128 133 110
-43.870 -36.351 -2.223 63 73 39
-43.921 -36.143 -2.270 40 45 22
-45.246 -35.645 -3.018 92 94 91
-45.264 -35.403 -3.057 190 192 187
-45.215 -35.175 -3.063 178 181 174
-45.139 -34.955 -3.057 168 170 165
-45.043 -34.742 -3.042 203 204 199
-44.286 -34.767 -2.655 146 153 122
-43.434 -34.867 -2.210 78 96 44
-43.345 -34.694 -2.200 107 121 72
-43.244 -34.529 -2.185 65 73 36
-43.136 -34.367 -2.169 64 71 27
-43.036 -34.203 -2.159 166 174 127
-42.912 -34.053 -2.137 103 104 73
-42.798 -33.899 -2.123 24 28 0
-42.695 -33.740 -2.119 70 76 40
-42.581 -33.589 -2.109 83 88 56
-42.463 -33.440 -2.100 105 116 74
-42.335 -33.300 -2.086 134 143 100
-42.171 -33.189 -2.049 92 92 56
-41.975 -33.105 -1.993 223 212 182
-41.886 -32.942 -2.010 165 151 86
-41.679 -32.877 -1.948 249 232 216
-41.547 -32.752 -1.940 205 197 161
-41.398 -32.644 -1.921 238 226 202
-41.234 -32.553 -1.892 245 229 204
-41.082 -32.453 -1.873 247 230 210
-40.945 -32.340 -1.867 243 226 206
-40.800 -32.236 -1.858 241 224 204
-40.653 -32.136 -1.848 247 230 210
-40.501 -32.043 -1.836 249 232 212
-40.352 -31.950 -1.828 250 233 213
-40.199 -31.861 -1.818 247 230 210
-40.043 -31.779 -1.807 247 230 210
-39.888 -31.698 -1.798 249 232 212
-39.730 -31.621 -1.789 247 230 210
-39.571 -31.549 -1.779 247 230 210
-39.408 -31.486 -1.767 237 225 203
-39.243 -31.428 -1.754 238 228 203
-39.083 -31.365 -1.746 249 226 212
-38.452 -32.362 -1.122 51 37 37
-38.312 -32.327 -1.109 29 35 33
-38.179 -32.274 -1.109 40 46 42
-38.047 -32.220 -1.112 54 60 56
-37.916 -32.161 -1.119 46 52 48
-37.783 -32.105 -1.126 45 51 51
-37.649 -32.054 -1.132 45 51 51
-37.513 -32.005 -1.139 33 39 39
-37.380 -31.938 -1.157 15 21 21
-37.243 -31.884 -1.170 28 32 33
-37.103 -31.839 -1.180 25 31 31
-36.961 -31.799 -1.189 9 17 19
-36.818 -31.763 -1.199 17 27 29
-36.672 -31.747 -1.198 28 33 36
-36.527 -31.720 -1.206 32 36 39
-36.381 -31.687 -1.219 39 43 46
-36.236 -31.587 -1.269 14 18 21
-36.086 -32.864 -0.689 166 159 149
-35.967 -32.878 -0.681 184 177 169
-35.848 -32.867 -0.690 188 181 173
-35.730 -32.883 -0.685 182 175 169
-35.613 -32.899 -0.682 195 186 179
-35.497 -32.931 -0.671 191 181 172
-35.383 -32.966 -0.660 190 180 171
-35.271 -33.006 -0.648 183 173 164
-35.161 -33.053 -0.634 186 176 167
-35.054 -33.108 -0.617 185 175 166
-34.948 -33.159 -0.602 182 172 163
-34.842 -33.208 -0.591 185 175 166
-34.738 -33.259 -0.580 187 177 168
-34.634 -33.308 -0.572 181 171 162
-34.533 -33.362 -0.561 182 172 163
-34.434 -33.418 -0.551 181 171 162
-34.334 -33.472 -0.544 181 170 164
-34.235 -33.527 -0.538 181 170 166
-34.137 -33.581 -0.533 177 166 162
-34.042 -33.640 -0.527 178 167 163
-33.947 -33.700 -0.522 174 163 159
-33.854 -33.762 -0.516 174 163 159
-33.763 -33.826 -0.511 183 172 168
-33.672 -33.891 -0.507 178 167 163
-33.584 -33.957 -0.503 178 165 157
-33.494 -34.022 -0.501 180 167 159
-33.411 -34.095 -0.496 172 159 151
-33.332 -34.173 -0.487 170 157 149
-33.252 -34.249 -0.482 179 169 160
-33.171 -34.322 -0.480 175 165 156
-33.095 -34.401 -0.475 174 164 155
-33.025 -34.487 -0.466 193 183 174
-32.956 -34.571 -0.460 191 181 172
-32.888 -34.657 -0.454 195 182 174
-32.820 -34.741 -0.450 207 194 185
-32.737 -34.813 -0.457 205 195 185
-32.642 -34.875 -0.476 199 191 180
-32.519 -34.918 -0.514 131 115 92
-32.420 -34.983 -0.536 219 193 160
-32.359 -35.077 -0.533 212 187 157
-32.304 -35.175 -0.528 201 175 148
-32.253 -35.274 -0.521 183 157 130
-32.204 -35.375 -0.515 169 143 116
-32.161 -35.478 -0.507 181 155 128
-32.120 -35.582 -0.499 196 170 143
-32.083 -35.687 -0.490 193 169 143
-32.051 -35.793 -0.480 200 179 158
-32.017 -35.898 -0.473 168 155 146
-31.986 -36.003 -0.466 121 105 90
-31.962 -36.111 -0.457 213 186 156
-31.943 -36.219 -0.445 188 168 135
-31.926 -36.327 -0.435 174 153 122
-31.912 -36.435 -0.424 150 123 93
-31.897 -36.542 -0.415 152 127 97
-31.885 -36.649 -0.407 131 106 76
-31.879 -36.757 -0.396 140 115 85
-31.869 -36.863 -0.390 114 85 55
-31.859 -36.968 -0.384 148 130 116
-31.832 -37.071 -0.390 65 42 26
-31.821 -37.175 -0.388 190 160 132
-31.817 -37.281 -0.384 196 166 140
-31.816 -37.387 -0.379 189 159 133
-31.816 -37.492 -0.375 187 157 131
-31.827 -37.597 -0.368 181 151 125
-31.837 -37.702 -0.361 176 149 122
-31.850 -37.805 -0.355 180 151 121
-31.871 -37.909 -0.345 189 162 133
-31.874 -38.012 -0.347 73 51 37
-31.885 -38.115 -0.346 125 93 70
-31.919 -38.215 -0.333 160 124 90
-31.932 -38.318 -0.333 143 107 73
-31.923 -38.424 -0.348 77 41 17
-31.940 -38.526 -0.349 77 54 36
-31.979 -38.624 -0.339 60 41 26
-32.015 -38.721 -0.332 60 43 27
-32.046 -38.819 -0.329 74 58 43
-32.088 -38.914 -0.322 66 54 42
-32.135 -39.007 -0.312 64 54 44
-32.185 -39.097 -0.303 173 146 119
-32.236 -39.186 -0.293 168 133 101
-32.294 -39.272 -0.281 169 139 111
-32.346 -39.359 -0.274 199 169 133
-32.390 -39.450 -0.272 210 180 142
-32.427 -39.543 -0.276 142 108 81
-32.489 -39.624 -0.267 167 136 115
-32.542 -39.709 -0.264 78 55 37
-32.583 -39.801 -0.270 131 114 98
-32.635 -39.887 -0.270 113 87 74
-32.688 -39.972 -0.271 125 96 78
-32.743 -40.056 -0.272 163 130 111
-32.812 -40.130 -0.265 176 139 120
-32.879 -40.204 -0.260 197 162 140
-32.952 -40.274 -0.253 193 163 137
-33.024 -40.343 -0.247 189 153 127
-33.096 -40.411 -0.242 189 163 148
-33.169 -40.478 -0.238 126 99 80
-33.250 -40.537 -0.228 179 132 106
-33.329 -40.598 -0.222 188 147 103
-33.019 -41.086 -0.538 80 55 48
-32.722 -41.601 -0.862 57 47 58
-32.789 -41.718 -0.888 43 44 49
-32.851 -41.846 -0.922 40 40 48
-32.921 -41.968 -0.952 28 29 34
-32.995 -42.090 -0.983 84 88 91
-33.069 -42.217 -1.018 65 65 67
-33.154 -42.331 -1.045 53 51 54
-33.251 -42.432 -1.065 38 38 40
-33.350 -42.531 -1.085 33 35 34
-33.449 -42.635 -1.109 50 51 46
-33.553 -42.734 -1.131 47 49 46
-33.662 -42.826 -1.151 63 65 64
-33.778 -42.907 -1.164 67 72 68
-33.890 -43.002 -1.188 84 82 83
-33.975 -43.173 -1.259 45 47 42
-34.076 -43.320 -1.316 48 60 48
-34.193 -43.431 -1.353 21 30 25
-34.320 -43.523 -1.381 37 42 38
-34.448 -43.618 -1.412 97 103 99
-34.581 -43.710 -1.442 33 42 37
-34.718 -43.792 -1.469 35 46 40
-34.858 -43.876 -1.498 15 18 9
-34.996 -43.982 -1.543 95 100 93
-35.141 -44.074 -1.580 27 38 30
-35.289 -44.164 -1.619 48 56 45
-35.441 -44.251 -1.657 39 45 35
-35.598 -44.319 -1.688 22 27 20
-35.758 -44.375 -1.713 30 35 31
-35.920 -44.437 -1.744 46 50 49
-36.086 -44.537 -1.799 48 54 50
-36.256 -44.618 -1.845 20 28 15
-36.429 -44.679 -1.882 45 53 38
-36.604 -44.728 -1.915 53 61 50
-36.782 -44.769 -1.947 21 29 18
-36.962 -44.804 -1.977 31 39 28
-37.146 -44.847 -2.014 57 65 54
-37.333 -44.890 -2.054 24 32 21
-37.521 -44.919 -2.090 50 61 45
-37.710 -44.936 -2.120 58 69 52
-37.897 -44.931 -2.142 53 61 46
-38.082 -44.914 -2.159 37 45 32
-38.275 -44.918 -2.191 49 53 38
-38.480 -44.950 -2.243 46 51 31
-38.690 -44.980 -2.296 65 74 47
-38.897 -44.988 -2.340 60 71 39
-39.092 -44.960 -2.366 16 24 0
-39.287 -44.924 -2.391 58 66 42
-39.482 -44.882 -2.414 46 56 29
-39.665 -44.813 -2.425 38 50 30
-39.845 -44.735 -2.432 55 64 45
-40.021 -44.648 -2.437 48 57 40
-40.202 -44.569 -2.449 84 92 81
-40.389 -44.496 -2.470 51 59 46
-40.579 -44.426 -2.495 68 81 63
-40.769 -44.352 -2.520 25 39 4
-40.944 -44.252 -2.532 54 66 30
-41.107 -44.136 -2.536 93 109 72
-41.267 -44.014 -2.538 46 61 30
-41.412 -43.876 -2.531 0 9 0
-41.564 -43.746 -2.533 69 73 56
-41.718 -43.617 -2.539 50 61 29
-41.869 -43.485 -2.545 38 48 14
-42.012 -43.344 -2.548 40 49 18
-42.151 -43.199 -2.549 91 102 70
-42.281 -43.046 -2.547 104 115 81
-42.414 -42.895 -2.549 82 86 59
-42.558 -42.753 -2.563 114 137 81
-42.676 -42.589 -2.560 128 147 92
-42.776 -42.413 -2.547 91 103 65
-42.882 -42.242 -2.542 29 41 5
-42.996 -42.078 -2.546 82 90 51
-43.091 -41.900 -2.539 100 104 71
-43.150 -41.703 -2.512 4 12 0
-43.230 -41.520 -2.502 64 65 47
-43.343 -41.354 -2.515 57 64 33
-43.458 -41.188 -2.532 40 57 15
-43.545 -41.008 -2.535 101 116 73
-43.621 -40.823 -2.533 48 61 17
-43.682 -40.632 -2.525 146 154 117
-43.718 -40.432 -2.505 55 60 37
-43.766 -40.239 -2.495 40 52 30
-43.819 -40.047 -2.491 24 37 11
-43.885 -39.860 -2.497 89 103 68
-43.932 -39.667 -2.495 107 121 85
-43.960 -39.470 -2.485 47 60 34
-43.961 -39.268 -2.462 20 26 12
-43.975 -39.070 -2.450 46 57 43
-44.005 -38.876 -2.449 32 45 28
-44.023 -38.680 -2.444 14 23 6
-44.035 -38.484 -2.439 46 50 27
-44.036 -38.288 -2.430 86 91 51
-44.007 -38.091 -2.408 140 139 111
-43.931 -37.894 -2.361 117 110 92
-43.919 -37.702 -2.353 78 73 54
-43.911 -37.509 -2.350 113 108 86
-43.929 -37.316 -2.364 133 134 102
-43.936 -37.122 -2.375 98 109 66
-43.920 -36.930 -2.375 82 102 49
-43.884 -36.740 -2.366 109 127 79
-43.856 -36.549 -2.365 46 61 20
-43.821 -36.359 -2.363 144 156 116
-43.841 -36.159 -2.394 97 103 77
-45.171 -35.661 -3.175 91 93 90
-45.188 -35.422 -3.215 184 187 180
-45.139 -35.196 -3.220 177 180 171
-45.064 -34.978 -3.214 170 173 164
-44.968 -34.767 -3.199 207 207 205
-44.555 -34.671 -2.999 141 147 119
-43.382 -34.887 -2.346 50 68 16
-43.292 -34.717 -2.334 30 48 0
-43.189 -34.553 -2.318 144 156 116
-43.077 -34.395 -2.298 105 114 69
-42.970 -34.236 -2.283 115 121 77
-42.854 -34.084 -2.265 110 114 77
-42.743 -33.930 -2.252 95 100 60
-42.636 -33.775 -2.244 82 88 50
-42.520 -33.627 -2.232 41 48 17
-42.405 -33.479 -2.224 42 49 18
-42.282 -33.338 -2.212 131 135 102
-42.135 -33.215 -2.185 112 112 74
-41.976 -33.105 -2.152 174 171 130
-41.857 -32.965 -2.149 132 121 42
-41.616 -32.931 -2.059 215 197 173
-41.474 -32.818 -2.041 235 225 189
-41.326 -32.712 -2.021 232 219 200
-41.180 -32.607 -2.004 247 231 208
-41.039 -32.499 -1.992 249 232 212
-40.902 -32.388 -1.985 248 231 211
-40.759 -32.284 -1.976 243 226 206
-40.614 -32.184 -1.967 247 230 210
-40.468 -32.087 -1.958 243 226 206
-40.319 -31.993 -1.950 245 228 208
-40.165 -31.910 -1.937 247 230 210
-40.011 -31.827 -1.926 240 223 203
-39.855 -31.750 -1.915 249 232 212
-39.700 -31.672 -1.907 246 229 209
-39.543 -31.600 -1.897 241 224 204
-39.380 -31.538 -1.884 236 219 199
-39.215 -31.485 -1.868 236 229 203
-39.054 -31.426 -1.858 242 225 209
-38.487 -32.285 -1.292 83 78 75
-38.350 -32.236 -1.288 75 80 83
-38.220 -32.169 -1.296 66 70 73
-38.089 -32.104 -1.304 69 73 76
-37.956 -32.041 -1.313 60 64 67
-37.821 -31.982 -1.321 59 65 63
-37.682 -31.933 -1.326 56 62 60
-37.540 -31.895 -1.327 57 63 61
-37.396 -31.867 -1.323 57 63 61
-37.252 -31.840 -1.321 52 56 57
-37.107 -31.813 -1.321 39 45 45
-36.964 -31.782 -1.326 37 45 47
-36.821 -31.744 -1.336 29 39 41
-36.676 -31.711 -1.345 31 39 41
-36.530 -31.679 -1.356 36 44 46
-36.383 -31.649 -1.367 36 44 46
-36.236 -31.573 -1.407 13 21 23
-36.086 -32.833 -0.811 87 87 79
-35.966 -32.828 -0.815 91 90 85
-35.845 -32.798 -0.835 142 141 136
-35.722 -32.772 -0.854 107 106 102
-35.598 -32.747 -0.874 101 100 96
-35.473 -32.734 -0.890 94 91 86
-35.348 -32.729 -0.902 200 193 187
-35.225 -32.742 -0.906 185 176 167
-35.103 -32.760 -0.909 175 166 157
-34.983 -32.792 -0.905 178 171 163
-34.865 -32.828 -0.901 205 198 190
-34.749 -32.870 -0.894 219 212 204
-34.636 -32.921 -0.884 214 209 203
-34.527 -32.982 -0.870 202 195 189
-34.422 -33.052 -0.851 189 180 175
-34.321 -33.126 -0.832 188 177 173
-34.219 -33.195 -0.816 192 181 177
-34.116 -33.258 -0.806 183 174 169
-34.013 -33.319 -0.799 173 164 157
-33.911 -33.381 -0.793 187 178 171
-33.810 -33.443 -0.788 189 180 173
-33.711 -33.510 -0.781 174 165 158
-33.613 -33.577 -0.777 181 170 168
-33.521 -33.651 -0.768 182 170 170
-33.427 -33.722 -0.763 179 168 164
-33.334 -33.794 -0.759 178 167 163
-33.243 -33.869 -0.755 178 167 163
-33.154 -33.944 -0.752 180 169 167
-33.067 -34.023 -0.747 183 172 166
-32.984 -34.106 -0.741 173 163 154
-32.904 -34.191 -0.735 169 159 149
-32.826 -34.278 -0.729 168 158 148
-32.747 -34.363 -0.726 163 150 142
-32.673 -34.452 -0.721 155 142 134
-32.600 -34.542 -0.716 161 146 139
-32.527 -34.632 -0.713 164 147 139
-32.455 -34.722 -0.712 166 154 140
-32.373 -34.804 -0.719 164 151 134
-32.305 -34.898 -0.718 180 163 143
-32.245 -34.997 -0.712 183 166 148
-32.190 -35.098 -0.705 183 166 148
-32.135 -35.200 -0.700 184 167 149
-32.085 -35.303 -0.693 190 173 155
-32.039 -35.409 -0.685 185 166 149
-31.995 -35.515 -0.678 183 166 148
-31.954 -35.622 -0.670 186 169 151
-31.916 -35.729 -0.663 185 168 150
-31.885 -35.839 -0.653 163 146 128
-31.853 -35.948 -0.645 164 146 132
-31.820 -36.056 -0.640 177 158 141
-31.789 -36.164 -0.635 175 158 142
-31.760 -36.272 -0.631 169 150 135
-31.737 -36.382 -0.624 183 164 147
-31.713 -36.491 -0.619 179 160 143
-31.695 -36.602 -0.613 176 157 140
-31.682 -36.713 -0.606 181 162 145
-31.668 -36.823 -0.601 182 161 144
-31.656 -36.933 -0.596 177 158 143
-31.643 -37.042 -0.593 184 161 145
-31.636 -37.153 -0.589 189 166 148
-31.633 -37.263 -0.583 192 166 151
-31.636 -37.373 -0.576 195 167 153
-31.644 -37.483 -0.568 197 169 155
-31.655 -37.593 -0.559 195 167 153
-31.669 -37.702 -0.550 184 161 143
-31.685 -37.810 -0.542 194 172 151
-31.708 -37.917 -0.531 192 170 149
-31.730 -38.023 -0.522 189 168 151
-31.753 -38.128 -0.514 182 163 146
-31.777 -38.233 -0.506 186 167 150
-31.803 -38.337 -0.500 193 171 157
-31.822 -38.441 -0.499 193 171 157
-31.851 -38.544 -0.493 194 172 159
-31.879 -38.646 -0.489 193 174 160
-31.909 -38.748 -0.486 192 173 159
-31.938 -38.849 -0.485 192 173 159
-31.968 -38.951 -0.485 188 171 155
-32.005 -39.050 -0.481 189 172 156
-32.053 -39.145 -0.473 185 167 147
-32.104 -39.238 -0.464 191 173 153
-32.158 -39.328 -0.455 187 170 154
-32.214 -39.418 -0.445 194 177 157
-32.268 -39.507 -0.438 199 181 161
-32.319 -39.598 -0.435 193 174 157
-32.376 -39.684 -0.429 178 159 145
-32.432 -39.771 -0.425 138 120 106
-32.494 -39.854 -0.417 154 138 125
-32.553 -39.938 -0.414 195 177 165
-32.609 -40.025 -0.414 196 177 163
-32.664 -40.111 -0.416 191 170 153
-32.727 -40.193 -0.414 199 178 159
-32.797 -40.268 -0.408 198 180 158
-32.874 -40.337 -0.398 195 179 156
-32.954 -40.403 -0.388 201 183 163
-33.030 -40.471 -0.381 191 174 158
-33.103 -40.541 -0.377 194 175 161
-33.177 -40.610 -0.375 194 176 162
-33.249 -40.681 -0.375 184 172 156
-33.024 -41.080 -0.633 113 108 105
-32.754 -41.564 -0.945 47 47 55
-32.815 -41.687 -0.977 38 38 46
-32.878 -41.812 -1.011 53 54 59
-32.946 -41.935 -1.043 25 26 31
-33.012 -42.066 -1.082 54 55 60
-33.081 -42.199 -1.123 42 43 48
-33.157 -42.326 -1.160 46 45 51
-33.241 -42.448 -1.195 39 40 45
-33.326 -42.573 -1.232 36 37 42
-33.422 -42.685 -1.263 35 36 38
-33.525 -42.790 -1.289 80 80 82
-33.637 -42.878 -1.306 78 78 80
-33.754 -42.962 -1.322 73 71 74
-33.870 -43.051 -1.343 74 72 75
-33.978 -43.165 -1.381 65 65 65
-34.085 -43.293 -1.429 53 55 54
-34.204 -43.398 -1.464 25 29 28
-34.330 -43.490 -1.493 31 35 36
-34.461 -43.574 -1.518 36 40 41
-34.595 -43.655 -1.543 55 59 60
-34.732 -43.730 -1.567 10 16 16
-34.870 -43.815 -1.599 10 17 10
-35.006 -43.926 -1.647 62 69 62
-35.149 -44.015 -1.685 55 62 54
-35.295 -44.111 -1.729 56 62 52
-35.446 -44.194 -1.766 37 40 33
-35.602 -44.259 -1.796 44 46 41
-35.761 -44.313 -1.822 16 22 18
-35.922 -44.372 -1.852 28 39 33
-36.086 -44.477 -1.912 44 47 36
-36.254 -44.560 -1.961 62 69 53
-36.426 -44.617 -1.998 41 52 36
-36.599 -44.661 -2.029 54 56 51
-36.775 -44.695 -2.057 23 25 22
-36.952 -44.722 -2.084 24 26 21
-37.134 -44.771 -2.126 38 43 37
-37.321 -44.820 -2.171 33 41 30
-37.508 -44.850 -2.208 68 79 63
-37.695 -44.867 -2.240 69 80 64
-37.880 -44.864 -2.263 55 66 52
-38.064 -44.849 -2.281 37 47 36
-38.255 -44.854 -2.315 59 70 53
-38.457 -44.881 -2.365 89 98 77
-38.662 -44.901 -2.415 41 49 28
-38.863 -44.902 -2.456 51 56 36
-39.050 -44.858 -2.472 18 24 12
-39.235 -44.806 -2.486 39 42 35
-39.436 -44.785 -2.524 37 45 22
-39.632 -44.746 -2.553 61 74 48
-39.812 -44.673 -2.564 38 50 30
-39.970 -44.558 -2.549 0 6 0
-40.147 -44.477 -2.561 46 54 57
-40.336 -44.414 -2.587 36 46 38
-40.526 -44.347 -2.614 54 66 56
-40.719 -44.281 -2.646 131 144 116
-40.901 -44.194 -2.667 42 51 30
-41.065 -44.082 -2.673 83 91 67
-41.220 -43.958 -2.673 73 82 51
-41.357 -43.812 -2.659 47 55 34
-41.510 -43.687 -2.664 46 55 36
-41.674 -43.571 -2.679 66 80 45
-41.825 -43.441 -2.686 71 82 48
-41.953 -43.287 -2.677 67 76 49
-42.083 -43.137 -2.673 100 106 94
-42.224 -42.996 -2.680 81 86 66
-42.363 -42.853 -2.689 71 76 54
-42.499 -42.707 -2.697 45 55 31
-42.619 -42.547 -2.696 144 157 111
-42.718 -42.372 -2.683 77 86 55
-42.806 -42.192 -2.667 56 64 41
-42.924 -42.031 -2.673 50 54 19
-43.022 -41.859 -2.669 28 26 3
-43.065 -41.655 -2.631 45 46 32
-43.157 -41.481 -2.629 41 44 37
-43.278 -41.322 -2.649 56 67 35
-43.384 -41.153 -2.661 6 27 0
-43.436 -40.960 -2.642 31 43 21
-43.487 -40.767 -2.625 63 69 59
-43.567 -40.587 -2.630 76 80 65
-43.626 -40.400 -2.624 26 32 18
-43.676 -40.209 -2.615 79 87 72
-43.737 -40.022 -2.616 17 31 6
-43.813 -39.840 -2.629 44 59 26
-43.862 -39.649 -2.628 23 38 5
-43.887 -39.453 -2.616 28 41 21
-43.890 -39.254 -2.594 14 25 11
-43.907 -39.059 -2.583 76 85 68
-43.928 -38.865 -2.578 60 69 50
-43.943 -38.671 -2.571 52 59 41
-43.954 -38.477 -2.565 55 50 30
-43.943 -38.281 -2.549 103 99 72
-43.890 -38.085 -2.511 121 119 94
-43.841 -37.892 -2.479 131 124 108
-43.835 -37.702 -2.474 126 125 107
-43.829 -37.511 -2.472 82 84 63
-43.852 -37.320 -2.489 52 55 26
-43.859 -37.128 -2.500 139 152 109
-43.850 -36.937 -2.505 88 108 45
-43.825 -36.747 -2.502 40 58 6
-43.804 -36.557 -2.505 54 68 33
-43.765 -36.369 -2.500 118 124 96
-43.763 -36.174 -2.520 79 84 64
-45.092 -35.679 -3.329 92 96 95
-45.107 -35.442 -3.369 177 179 174
-45.059 -35.218 -3.375 166 167 159
-44.985 -35.002 -3.369 158 160 149
-44.893 -34.792 -3.355 197 198 193
-44.572 -34.665 -3.204 146 156 122
-43.324 -34.909 -2.479 85 112 43
-43.233 -34.741 -2.467 66 92 27
-43.131 -34.579 -2.449 134 147 93
-43.018 -34.423 -2.428 92 106 57
-42.905 -34.269 -2.408 83 94 54
-42.790 -34.118 -2.389 120 121 89
-42.685 -33.963 -2.379 104 108 75
-42.576 -33.812 -2.368 182 189 155
-42.462 -33.664 -2.357 45 57 19
-42.345 -33.519 -2.346 60 67 34
-42.220 -33.381 -2.332 108 104 77
-42.094 -33.246 -2.319 63 58 26
-41.977 -33.104 -2.314 148 149 105
-41.848 -32.973 -2.304 91 83 0
-41.579 -32.963 -2.189 221 212 169
-41.392 -32.892 -2.135 249 234 211
-41.261 -32.774 -2.126 222 206 183
-41.130 -32.657 -2.119 241 226 205
-40.994 -32.547 -2.109 246 228 206
-40.860 -32.434 -2.105 248 230 208
-40.720 -32.329 -2.096 244 229 206
-40.575 -32.231 -2.086 247 232 209
-40.426 -32.140 -2.073 238 223 200
-40.276 -32.051 -2.061 236 221 198
-40.126 -31.965 -2.051 242 227 206
-39.974 -31.883 -2.040 241 226 203
-39.823 -31.800 -2.033 241 226 203
-39.672 -31.718 -2.027 233 218 195
-39.517 -31.644 -2.019 213 198 175
-39.354 -31.586 -2.003 213 203 178
-39.196 -31.523 -1.994 219 209 184
-39.030 -31.476 -1.976 224 212 190
-38.611 -32.004 -1.598 132 127 108
-38.442 -32.013 -1.555 105 105 97
-38.302 -31.957 -1.555 93 92 87
-38.167 -31.885 -1.567 88 89 84
-38.030 -31.818 -1.578 78 78 76
-37.890 -31.754 -1.588 72 74 71
-37.747 -31.700 -1.595 67 69 66
-37.600 -31.658 -1.597 69 71 68
-37.451 -31.621 -1.598 62 64 61
-37.301 -31.592 -1.596 63 65 62
-37.149 -31.577 -1.589 65 67 64
-36.998 -31.552 -1.589 57 59 56
-36.847 -31.528 -1.591 64 66 63
-36.696 -31.508 -1.593 60 64 63
-36.544 -31.491 -1.595 57 63 61
-36.392 -31.471 -1.601 49 55 53
-36.239 -31.449 -1.611 51 57 55
-36.086 -32.863 -0.900 104 102 90
-35.967 -32.844 -0.912 88 86 74
-35.847 -32.839 -0.918 120 117 108
-35.727 -32.831 -0.927 86 83 76
-35.605 -32.815 -0.943 105 104 99
-35.481 -32.802 -0.959 102 99 92
-35.356 -32.779 -0.983 172 165 157
-35.230 -32.768 -1.001 187 179 168
-35.105 -32.770 -1.014 183 175 162
-34.980 -32.778 -1.025 187 181 169
-34.853 -32.781 -1.040 179 173 161
-34.727 -32.792 -1.054 163 157 145
-34.602 -32.809 -1.064 197 193 184
-34.478 -32.836 -1.072 180 177 170
-34.352 -32.855 -1.086 71 67 64
-34.227 -32.882 -1.096 88 84 83
-34.110 -32.932 -1.095 86 82 81
-33.998 -32.992 -1.088 122 118 117
-33.888 -33.054 -1.082 160 156 155
-33.784 -33.128 -1.069 176 172 171
-33.676 -33.192 -1.065 182 178 175
-33.571 -33.262 -1.058 184 181 176
-33.475 -33.345 -1.044 179 174 168
-33.378 -33.425 -1.034 184 177 171
-33.279 -33.501 -1.028 184 177 169
-33.183 -33.580 -1.021 182 175 169
-33.089 -33.661 -1.015 182 174 171
-32.993 -33.739 -1.013 175 167 164
-32.901 -33.821 -1.009 182 173 168
-32.810 -33.904 -1.006 173 164 157
-32.722 -33.991 -1.002 169 160 151
-32.636 -34.078 -0.999 167 159 148
-32.550 -34.166 -0.997 160 151 142
-32.470 -34.259 -0.992 174 164 154
-32.396 -34.357 -0.985 149 136 127
-32.325 -34.457 -0.977 154 142 130
-32.255 -34.558 -0.970 177 161 148
-32.191 -34.662 -0.961 165 149 136
-32.133 -34.770 -0.950 174 156 142
-32.078 -34.879 -0.938 179 160 145
-32.025 -34.988 -0.927 175 158 142
-31.972 -35.096 -0.919 180 163 147
-31.919 -35.204 -0.912 176 157 142
-31.871 -35.314 -0.903 174 152 138
-31.821 -35.422 -0.899 174 155 140
-31.774 -35.531 -0.894 177 158 143
-31.727 -35.640 -0.890 176 157 142
-31.683 -35.750 -0.887 190 171 156
-31.638 -35.859 -0.885 174 156 142
-31.598 -35.970 -0.883 183 165 151
-31.562 -36.083 -0.880 184 166 152
-31.531 -36.197 -0.875 181 163 149
-31.508 -36.313 -0.868 190 172 158
-31.485 -36.428 -0.861 195 177 163
-31.464 -36.544 -0.856 177 159 145
-31.444 -36.659 -0.851 186 168 154
-31.428 -36.775 -0.847 186 167 152
-31.412 -36.890 -0.843 182 163 148
-31.402 -37.007 -0.838 187 168 153
-31.396 -37.123 -0.833 182 163 148
-31.391 -37.239 -0.827 182 163 149
-31.392 -37.355 -0.821 186 164 151
-31.400 -37.471 -0.812 184 162 149
-31.411 -37.587 -0.803 193 171 158
-31.426 -37.702 -0.793 191 172 157
-31.443 -37.815 -0.784 190 171 156
-31.462 -37.929 -0.775 195 176 161
-31.487 -38.041 -0.764 191 172 157
-31.515 -38.152 -0.753 196 177 163
-31.539 -38.262 -0.746 190 172 158
-31.566 -38.372 -0.739 197 179 165
-31.593 -38.481 -0.733 191 173 159
-31.622 -38.589 -0.728 188 170 158
-31.652 -38.697 -0.724 187 169 157
-31.686 -38.804 -0.719 181 163 151
-31.721 -38.909 -0.714 186 168 156
-31.757 -39.015 -0.711 192 174 160
-31.797 -39.118 -0.707 193 177 162
-31.838 -39.221 -0.704 194 178 163
-31.884 -39.322 -0.699 188 172 157
-31.936 -39.420 -0.692 177 161 146
-31.992 -39.516 -0.684 186 170 155
-32.050 -39.610 -0.676 184 168 153
-32.109 -39.703 -0.669 172 156 141
-32.170 -39.794 -0.661 172 156 143
-32.232 -39.884 -0.654 179 163 150
-32.297 -39.972 -0.647 178 162 149
-32.361 -40.060 -0.643 167 151 138
-32.425 -40.148 -0.639 145 128 121
-32.491 -40.233 -0.635 154 136 132
-32.561 -40.316 -0.630 130 112 108
-32.635 -40.394 -0.624 114 96 94
-32.711 -40.471 -0.617 107 92 85
-32.794 -40.541 -0.606 115 102 94
-32.876 -40.610 -0.596 105 90 85
-32.955 -40.682 -0.591 108 93 90
-33.036 -40.752 -0.585 119 107 95
-33.107 -40.830 -0.589 110 101 92
-32.986 -41.122 -0.767 91 87 88
-32.792 -41.520 -1.023 34 34 42
-32.848 -41.647 -1.059 37 41 52
-32.911 -41.769 -1.093 48 55 65
-32.978 -41.892 -1.127 21 28 38
-33.041 -42.024 -1.169 45 52 62
-33.110 -42.156 -1.211 30 33 40
-33.185 -42.283 -1.250 52 52 60
-33.267 -42.404 -1.286 47 47 55
-33.353 -42.526 -1.323 39 39 47
-33.442 -42.648 -1.362 36 36 44
-33.531 -42.777 -1.406 52 52 60
-33.626 -42.902 -1.448 53 52 60
-33.730 -43.015 -1.484 40 37 46
-33.841 -43.121 -1.516 36 35 43
-33.954 -43.228 -1.551 43 42 50
-34.071 -43.332 -1.584 58 58 66
-34.197 -43.420 -1.610 35 38 45
-34.323 -43.513 -1.640 24 27 32
-34.451 -43.608 -1.673 75 78 83
-34.587 -43.684 -1.696 81 84 89
-34.728 -43.747 -1.714 36 39 44
-34.870 -43.814 -1.736 74 78 79
-35.010 -43.902 -1.772 67 69 66
-35.153 -43.987 -1.808 57 57 55
-35.301 -44.068 -1.845 63 62 58
-35.451 -44.143 -1.880 24 25 19
-35.606 -44.209 -1.911 46 48 43
-35.764 -44.255 -1.933 51 57 55
-35.923 -44.314 -1.965 23 32 31
-36.086 -44.405 -2.018 33 39 39
-36.252 -44.489 -2.069 12 22 14
-36.422 -44.540 -2.104 29 40 32
-36.594 -44.587 -2.138 60 66 64
-36.767 -44.618 -2.166 17 19 18
-36.942 -44.642 -2.192 20 22 19
-37.124 -44.702 -2.242 52 57 51
-37.308 -44.747 -2.286 36 43 36
-37.492 -44.772 -2.321 47 53 43
-37.677 -44.789 -2.354 42 45 36
-37.862 -44.791 -2.380 35 38 31
-38.045 -44.780 -2.402 39 41 36
-38.235 -44.787 -2.438 54 59 52
-38.430 -44.796 -2.479 64 70 60
-38.624 -44.796 -2.516 53 61 48
-38.815 -44.777 -2.545 35 43 32
-38.995 -44.724 -2.556 31 38 30
-39.176 -44.673 -2.571 37 39 38
-39.382 -44.671 -2.621 35 39 22
-39.590 -44.664 -2.672 50 62 40
-39.757 -44.569 -2.667 49 59 48
-39.898 -44.430 -2.635 8 13 16
-40.084 -44.372 -2.661 27 31 40
-40.276 -44.319 -2.695 31 37 33
-40.467 -44.259 -2.727 27 31 34
-40.656 -44.191 -2.758 9 15 3
