ply
format ascii 1.0
element vertex 1612
property float x
property float y
property float z
property uchar red
property uchar green
property uchar blue
end_header
-1.731 29.783 -39.653 12 17 23
-1.397 29.932 -39.669 12 21 26
-1.060 30.076 -39.692 14 23 28
-0.719 30.210 -39.713 6 15 22
-0.375 30.334 -39.727 11 20 29
-0.027 30.449 -39.739 8 15 25
0.324 30.555 -39.751 11 18 28
0.679 30.650 -39.755 16 23 33
1.035 30.736 -39.757 19 26 36
1.395 30.808 -39.747 22 31 38
1.756 30.869 -39.730 21 30 37
2.120 30.915 -39.695 24 33 40
2.486 30.939 -39.624 21 32 38
2.851 30.958 -39.565 26 30 41
3.216 30.966 -39.498 25 29 41
3.580 30.986 -39.491 20 29 38
3.944 31.016 -39.538 20 31 37
4.309 32.230 -45.347 29 38 45
4.703 32.225 -45.347 28 37 44
5.097 32.210 -45.347 31 40 47
5.491 32.186 -45.347 30 39 46
5.884 32.152 -45.347 33 40 48
6.276 32.109 -45.347 33 40 48
6.667 32.056 -45.347 24 31 39
7.056 31.993 -45.347 24 31 39
7.444 31.921 -45.347 22 29 37
7.830 31.839 -45.347 22 29 37
8.214 31.748 -45.347 25 32 40
8.595 31.648 -45.347 21 28 36
8.974 31.538 -45.347 23 30 38
9.350 31.419 -45.347 19 26 34
9.723 31.290 -45.347 16 23 31
10.093 31.153 -45.347 19 26 34
10.459 31.006 -45.347 20 27 35
10.822 30.851 -45.347 28 35 43
11.180 30.687 -45.347 21 28 36
11.535 30.514 -45.347 22 29 37
11.885 30.332 -45.347 25 32 40
12.231 30.142 -45.347 23 30 38
12.571 29.943 -45.347 23 30 38
12.907 29.736 -45.347 14 21 29
13.238 29.521 -45.347 7 18 24
13.563 29.298 -45.347 20 31 37
13.883 29.067 -45.347 20 31 37
14.197 28.828 -45.347 20 31 37
14.505 28.582 -45.347 22 31 38
14.807 28.328 -45.347 21 28 36
15.102 28.066 -45.347 21 28 36
15.391 27.798 -45.347 21 28 36
15.673 27.522 -45.347 20 27 35
15.949 27.240 -45.347 21 28 36
16.217 26.951 -45.347 23 30 38
16.479 26.656 -45.347 23 30 38
16.733 26.354 -45.347 23 27 36
16.979 26.046 -45.347 23 27 36
17.218 25.732 -45.347 23 27 36
17.449 25.412 -45.347 23 27 36
17.672 25.087 -45.347 24 28 39
17.887 24.756 -45.347 23 27 38
18.094 24.420 -45.347 24 28 39
18.293 24.080 -45.347 25 29 40
18.483 23.734 -45.347 19 23 32
18.665 23.384 -45.347 22 26 35
18.838 23.029 -45.347 21 25 34
19.002 22.671 -45.347 20 24 33
19.157 22.308 -45.347 22 29 37
19.304 21.942 -45.347 19 26 34
19.441 21.572 -45.347 20 27 35
19.570 21.199 -45.347 19 26 34
19.689 20.823 -45.347 20 27 35
19.799 20.444 -45.347 20 27 35
19.899 20.063 -45.347 19 26 34
19.990 19.679 -45.347 17 24 32
20.072 19.293 -45.347 19 26 34
20.144 18.905 -45.347 19 26 34
20.207 18.516 -45.347 19 26 34
20.260 18.125 -45.347 18 25 33
20.303 17.733 -45.347 15 26 32
20.337 17.340 -45.347 16 27 33
20.361 16.946 -45.347 16 27 33
20.376 16.552 -45.347 16 27 33
20.381 16.158 -45.347 18 25 33
20.376 15.763 -45.347 20 27 35
20.361 15.369 -45.347 20 27 35
20.337 14.975 -45.347 20 27 35
20.297 14.583 -45.328 19 26 34
20.225 14.195 -45.244 19 26 34
20.146 13.809 -45.166 19 26 34
20.058 13.425 -45.090 19 26 34
19.962 13.044 -45.016 19 26 34
19.857 12.666 -44.944 19 26 34
19.746 12.291 -44.880 19 26 34
19.628 11.918 -44.824 22 29 37
19.500 11.550 -44.766 21 28 36
19.364 11.184 -44.710 17 24 32
19.219 10.823 -44.651 21 28 36
19.065 10.466 -44.592 20 27 35
18.903 10.112 -44.537 23 27 36
18.734 9.764 -44.482 26 30 39
18.554 9.420 -44.422 25 29 38
18.364 9.083 -44.356 27 31 40
18.169 8.749 -44.297 25 32 40
17.966 8.421 -44.241 25 32 40
17.756 8.098 -44.186 25 32 40
17.538 7.780 -44.131 23 30 38
17.315 7.467 -44.082 22 29 37
17.085 7.160 -44.034 24 28 37
16.847 6.859 -43.985 25 29 38
16.602 6.564 -43.936 23 27 36
16.348 6.277 -43.882 22 26 35
16.088 5.997 -43.826 23 27 36
15.820 5.725 -43.765 27 31 40
15.545 5.460 -43.706 28 32 41
15.266 5.200 -43.652 23 30 40
14.982 4.947 -43.599 24 33 42
14.692 4.702 -43.548 25 34 43
14.396 4.464 -43.495 24 33 42
14.095 4.233 -43.443 24 33 40
13.789 4.010 -43.394 25 34 41
13.478 3.795 -43.343 23 32 39
13.161 3.588 -43.290 23 32 39
12.840 3.390 -43.236 25 32 40
12.515 3.199 -43.185 25 29 38
12.187 3.014 -43.142 24 28 37
11.855 2.837 -43.102 26 30 39
11.520 2.667 -43.065 22 29 39
11.181 2.505 -43.026 24 31 41
10.838 2.353 -42.988 25 32 42
10.492 2.209 -42.949 23 30 40
10.143 2.073 -42.912 22 31 40
9.791 1.946 -42.875 23 32 41
9.436 1.828 -42.834 22 31 40
9.078 1.721 -42.791 22 31 40
8.718 1.622 -42.748 25 32 42
8.357 1.530 -42.711 25 29 40
7.994 1.447 -42.675 23 27 38
7.629 1.373 -42.638 22 26 37
7.262 1.308 -42.602 23 30 40
6.895 1.251 -42.569 22 31 40
6.527 1.202 -42.540 21 30 39
6.158 1.161 -42.515 21 30 39
5.789 1.129 -42.489 19 26 36
5.419 1.106 -42.461 21 28 38
5.049 1.093 -42.433 20 27 37
4.679 1.088 -42.407 17 24 34
4.309 1.092 -42.381 9 16 24
3.939 1.107 -42.351 7 14 22
3.571 1.133 -42.316 8 15 23
3.203 1.169 -42.276 6 13 21
2.837 1.214 -42.236 10 17 25
2.472 1.268 -42.198 12 19 27
2.109 1.330 -42.160 12 19 27
1.748 1.401 -42.121 12 19 27
1.389 1.481 -42.083 12 19 29
1.033 1.569 -42.047 15 22 32
0.678 1.665 -42.013 19 26 36
0.327 1.769 -41.982 26 33 43
-0.022 1.880 -41.953 19 28 37
-0.368 2.001 -41.921 26 36 45
-0.711 2.130 -41.892 35 45 54
-1.050 2.265 -41.867 34 44 53
-1.387 2.408 -41.843 34 44 53
-1.719 2.560 -41.817 35 44 53
-2.047 2.720 -41.790 36 45 54
-2.370 2.888 -41.763 36 45 54
-2.690 3.063 -41.740 36 45 54
-3.006 3.246 -41.718 34 43 52
-3.317 3.435 -41.696 40 49 58
-3.623 3.632 -41.674 35 44 53
-3.924 3.837 -41.652 35 44 53
-4.220 4.048 -41.633 31 38 48
-4.511 4.266 -41.615 22 29 39
-4.796 4.491 -41.596 19 26 36
-5.075 4.724 -41.574 24 28 39
-5.346 4.965 -41.546 21 23 35
-5.611 5.213 -41.515 21 23 35
-5.869 5.468 -41.482 20 22 34
-6.120 5.729 -41.449 16 23 33
-6.365 5.995 -41.417 12 19 29
-6.604 6.267 -41.387 6 13 23
-6.836 6.544 -41.360 8 15 25
-7.062 6.826 -41.335 4 13 22
-7.281 7.113 -41.308 4 13 22
-7.491 7.407 -41.277 6 15 24
-7.692 7.706 -41.241 6 15 24
-7.885 8.010 -41.201 8 17 26
-8.070 8.319 -41.164 7 16 25
-8.247 8.632 -41.125 6 15 24
-8.417 8.949 -41.087 7 16 25
-8.580 9.268 -41.054 3 12 21
-8.737 9.591 -41.024 11 20 29
-8.883 9.918 -40.990 14 23 32
-9.021 10.249 -40.953 11 20 29
-9.150 10.583 -40.913 7 16 25
-9.269 10.920 -40.872 13 22 31
-9.382 11.259 -40.835 14 23 32
-9.485 11.601 -40.796 5 14 23
-9.580 11.945 -40.756 8 15 25
-9.667 12.290 -40.718 14 21 31
-9.747 12.637 -40.685 27 34 44
-9.817 12.986 -40.650 17 24 34
-9.878 13.336 -40.613 9 16 26
-9.930 13.687 -40.573 16 23 33
-9.973 14.039 -40.534 14 21 31
-10.010 14.392 -40.501 15 22 32
-10.039 14.745 -40.472 9 16 26
-10.060 15.098 -40.445 11 18 28
-10.075 15.451 -40.423 17 24 34
-10.080 15.805 -40.400 16 23 33
-10.075 16.158 -40.374 16 23 33
-10.061 16.511 -40.346 21 28 38
-10.039 16.863 -40.317 20 27 37
-10.008 17.214 -40.291 18 25 35
-9.970 17.564 -40.268 18 23 29
-9.923 17.913 -40.244 19 24 30
-9.866 18.260 -40.215 16 21 27
-9.800 18.606 -40.183 18 23 29
-9.725 18.949 -40.151 18 25 33
-9.641 19.290 -40.119 17 26 35
-9.550 19.629 -40.088 17 26 35
-9.450 19.965 -40.055 24 33 42
-9.342 20.299 -40.022 28 37 46
-9.226 20.629 -39.993 29 38 47
-9.107 20.958 -39.975 30 39 48
-8.982 21.284 -39.964 28 38 47
-8.850 21.608 -39.957 27 37 46
-8.711 21.929 -39.953 26 36 45
-8.564 22.246 -39.949 27 37 46
-8.408 22.559 -39.940 27 37 46
-8.242 22.866 -39.923 28 37 42
-8.067 23.169 -39.901 29 36 42
-7.886 23.467 -39.883 30 37 43
-7.697 23.760 -39.862 29 36 42
-7.501 24.049 -39.841 30 34 43
-7.297 24.332 -39.819 28 32 43
-7.089 24.611 -39.803 20 24 35
-6.877 24.887 -39.800 14 18 29
-6.659 25.159 -39.798 7 14 22
-6.434 25.424 -39.794 7 16 21
-6.200 25.682 -39.781 7 16 21
-5.958 25.933 -39.761 11 20 25
-5.710 26.176 -39.738 13 22 27
-5.456 26.414 -39.718 30 39 44
-5.199 26.648 -39.706 27 36 41
-4.937 26.876 -39.700 27 36 41
-4.672 27.101 -39.703 27 36 41
-4.404 27.322 -39.720 29 36 42
-4.133 27.540 -39.747 30 37 43
-3.856 27.751 -39.773 30 37 43
-3.572 27.952 -39.786 31 36 42
-3.282 28.145 -39.800 31 36 40
-2.987 28.330 -39.805 33 38 42
-2.688 28.509 -39.820 29 34 38
-2.387 28.684 -39.843 24 31 39
-2.081 28.851 -39.863 20 27 37
-1.770 29.009 -39.881 17 24 34
-1.454 29.158 -39.890 22 29 39
-1.134 29.297 -39.896 38 47 52
-0.810 29.429 -39.902 55 64 69
-0.484 29.553 -39.912 58 67 72
-0.155 29.670 -39.922 23 32 37
0.176 29.782 -39.943 21 30 37
0.510 29.886 -39.961 19 28 37
0.847 29.979 -39.973 17 26 35
1.186 30.064 -39.987 18 27 36
1.527 30.141 -40.000 14 23 30
1.871 30.207 -40.005 10 17 23
2.217 30.262 -40.005 12 19 25
2.564 30.303 -39.987 12 19 25
2.912 30.343 -39.990 13 20 28
3.261 30.357 -39.944 19 23 32
3.611 30.367 -39.909 22 29 37
3.960 30.381 -39.914 19 28 35
4.309 31.453 -45.603 25 34 41
4.684 31.448 -45.603 22 31 38
5.059 31.434 -45.603 32 41 48
5.434 31.411 -45.603 31 40 47
5.808 31.379 -45.603 29 36 44
6.181 31.338 -45.603 22 29 37
6.553 31.287 -45.603 23 30 38
6.924 31.228 -45.603 23 30 38
7.293 31.159 -45.603 22 29 37
7.660 31.081 -45.603 22 29 37
8.025 30.995 -45.603 22 29 37
8.388 30.899 -45.603 22 29 37
8.749 30.794 -45.603 17 24 32
9.107 30.681 -45.603 14 21 29
9.462 30.559 -45.603 17 24 32
9.813 30.428 -45.603 20 27 35
10.162 30.289 -45.603 22 29 37
10.507 30.141 -45.603 27 34 42
10.848 29.984 -45.603 20 27 35
11.186 29.820 -45.603 21 28 36
11.519 29.647 -45.603 22 29 37
11.848 29.466 -45.603 21 28 36
12.172 29.277 -45.603 17 24 32
12.492 29.080 -45.603 17 24 32
12.806 28.875 -45.603 23 32 39
13.116 28.663 -45.603 18 29 35
13.420 28.443 -45.603 19 30 36
13.719 28.216 -45.603 19 30 36
14.012 27.981 -45.603 19 26 34
14.299 27.739 -45.603 20 27 35
14.580 27.491 -45.603 18 25 33
14.855 27.235 -45.603 18 25 33
15.124 26.973 -45.603 20 27 35
15.386 26.704 -45.603 21 28 36
15.642 26.429 -45.603 22 29 37
15.890 26.148 -45.603 22 29 37
16.132 25.861 -45.603 24 28 37
16.367 25.568 -45.603 24 28 37
16.594 25.269 -45.603 22 26 35
16.814 24.965 -45.603 22 26 35
17.026 24.655 -45.603 23 27 38
17.231 24.341 -45.603 22 26 37
17.428 24.021 -45.603 21 25 36
17.617 23.697 -45.603 22 26 37
17.798 23.368 -45.603 21 25 34
17.971 23.035 -45.603 21 25 34
18.135 22.697 -45.603 21 25 34
18.292 22.356 -45.603 20 24 33
18.440 22.011 -45.603 18 25 33
18.579 21.662 -45.603 18 25 33
18.710 21.311 -45.603 17 24 32
18.832 20.956 -45.603 16 23 31
18.945 20.598 -45.603 16 23 31
19.050 20.237 -45.603 16 23 31
19.146 19.874 -45.603 17 24 32
19.232 19.509 -45.603 16 23 31
19.310 19.142 -45.603 18 25 33
19.379 18.773 -45.603 15 22 30
19.438 18.402 -45.603 15 22 30
19.489 18.030 -45.603 16 23 31
19.530 17.657 -45.603 15 24 31
19.562 17.283 -45.603 15 24 31
19.585 16.908 -45.603 16 25 32
19.599 16.533 -45.603 16 25 32
19.604 16.158 -45.603 17 24 32
19.599 15.782 -45.603 17 24 32
19.585 15.407 -45.603 19 26 34
19.562 15.033 -45.603 19 26 34
19.530 14.659 -45.603 18 25 33
19.474 14.287 -45.557 18 25 33
19.401 13.919 -45.485 18 25 33
19.319 13.553 -45.414 18 25 33
19.228 13.190 -45.343 16 23 31
19.129 12.830 -45.275 16 23 31
19.025 12.472 -45.215 18 25 33
18.913 12.116 -45.161 19 26 34
18.792 11.764 -45.106 19 26 34
18.663 11.416 -45.049 18 25 33
18.525 11.071 -44.991 17 24 32
18.378 10.731 -44.933 19 26 34
18.225 10.394 -44.880 19 23 32
18.064 10.060 -44.828 25 29 38
17.895 9.732 -44.776 24 28 37
17.717 9.409 -44.719 25 29 38
17.533 9.089 -44.667 20 27 35
17.342 8.774 -44.620 19 26 34
17.144 8.465 -44.574 21 28 36
16.937 8.161 -44.522 19 26 34
16.723 7.863 -44.467 20 24 33
16.501 7.571 -44.412 24 28 37
16.273 7.285 -44.359 23 27 36
16.038 7.004 -44.307 21 25 34
15.797 6.730 -44.253 21 25 34
15.548 6.463 -44.195 18 22 31
15.293 6.203 -44.137 18 22 31
15.032 5.948 -44.081 17 21 30
14.767 5.700 -44.030 15 22 32
14.496 5.458 -43.980 16 23 33
14.219 5.223 -43.929 16 23 33
13.936 4.997 -43.874 15 22 32
13.648 4.777 -43.819 15 22 30
13.356 4.564 -43.770 15 22 30
13.060 4.359 -43.720 16 23 31
12.758 4.160 -43.671 18 25 33
12.452 3.970 -43.619 20 24 33
12.142 3.788 -43.568 23 27 36
11.828 3.613 -43.520 24 28 37
11.511 3.445 -43.475 28 32 41
11.190 3.284 -43.432 28 35 45
10.865 3.132 -43.387 26 33 43
10.538 2.988 -43.342 27 34 44
10.207 2.851 -43.300 23 30 40
9.874 2.722 -43.260 23 30 40
9.538 2.602 -43.219 24 31 41
9.199 2.491 -43.175 23 30 40
8.857 2.390 -43.128 23 30 40
8.513 2.297 -43.081 21 30 39
8.168 2.211 -43.038 21 30 39
7.822 2.133 -42.997 22 31 40
7.474 2.063 -42.959 20 29 38
7.125 2.001 -42.924 21 28 36
6.775 1.946 -42.893 19 26 34
6.424 1.897 -42.868 17 24 32
6.073 1.857 -42.846 12 19 27
5.720 1.826 -42.820 7 11 20
5.367 1.806 -42.790 6 10 19
5.014 1.795 -42.755 6 10 19
4.661 1.793 -42.721 5 9 18
4.309 1.800 -42.685 4 8 17
3.957 1.817 -42.648 6 10 19
3.605 1.842 -42.609 7 11 20
3.255 1.877 -42.568 10 14 23
2.906 1.919 -42.528 8 17 26
2.559 1.969 -42.493 15 25 35
2.213 2.027 -42.461 25 35 45
1.868 2.092 -42.430 30 40 50
1.526 2.166 -42.399 39 49 58
1.185 2.248 -42.369 39 49 58
0.847 2.337 -42.342 43 53 62
0.511 2.434 -42.317 44 54 63
0.177 2.539 -42.294 40 49 58
-0.153 2.652 -42.269 37 46 55
-0.480 2.773 -42.243 36 45 54
-0.804 2.903 -42.217 35 44 53
-1.125 3.040 -42.191 32 41 48
-1.442 3.184 -42.166 32 41 48
-1.755 3.337 -42.139 33 42 49
-2.064 3.497 -42.113 33 42 49
-2.369 3.664 -42.090 33 42 51
-2.671 3.836 -42.073 34 43 52
-2.969 4.016 -42.058 30 39 48
-3.262 4.202 -42.044 20 29 38
-3.550 4.396 -42.027 19 26 34
-3.833 4.598 -42.006 25 29 38
-4.110 4.806 -41.985 25 29 38
-4.381 5.023 -41.959 13 17 26
-4.645 5.248 -41.924 8 15 23
-4.901 5.481 -41.884 14 21 29
-5.152 5.720 -41.844 23 30 38
-5.396 5.965 -41.803 29 36 44
-5.635 6.214 -41.765 32 41 48
-5.867 6.470 -41.728 33 44 50
-6.094 6.730 -41.694 31 42 48
-6.314 6.995 -41.660 32 43 49
-6.527 7.265 -41.628 34 43 50
-6.735 7.539 -41.598 36 43 51
-6.935 7.819 -41.567 33 40 48
-7.127 8.104 -41.533 36 43 51
-7.312 8.393 -41.497 31 40 47
-7.489 8.687 -41.462 33 42 49
-7.660 8.984 -41.428 33 42 49
-7.822 9.286 -41.393 33 42 49
-7.978 9.590 -41.361 31 38 46
-8.127 9.898 -41.329 24 31 39
-8.265 10.211 -41.291 25 32 40
-8.398 10.525 -41.257 30 37 45
-8.521 10.843 -41.221 32 39 47
-8.637 11.164 -41.186 31 38 46
-8.745 11.487 -41.151 36 43 51
-8.847 11.812 -41.122 31 38 46
-8.944 12.138 -41.101 18 22 31
-9.030 12.466 -41.075 12 16 25
-9.106 12.798 -41.041 20 24 33
-9.172 13.131 -41.000 16 20 29
-9.229 13.465 -40.959 10 14 23
-9.278 13.800 -40.917 9 13 22
-9.318 14.136 -40.874 10 14 23
-9.351 14.473 -40.836 14 18 27
-9.378 14.810 -40.803 15 19 28
-9.397 15.147 -40.772 17 21 30
-9.410 15.484 -40.747 6 10 19
-9.414 15.821 -40.722 7 11 20
-9.410 16.158 -40.697 11 15 24
-9.398 16.494 -40.672 10 14 23
-9.376 16.830 -40.644 12 16 25
-9.346 17.165 -40.615 16 20 29
-9.309 17.499 -40.586 8 15 21
-9.261 17.831 -40.554 9 18 23
-9.206 18.163 -40.523 20 29 34
-9.145 18.492 -40.497 22 31 36
-9.075 18.820 -40.472 16 23 31
-8.999 19.146 -40.449 11 18 26
-8.915 19.470 -40.427 9 16 24
-8.822 19.792 -40.404 12 19 27
-8.721 20.110 -40.378 17 24 32
-8.609 20.425 -40.342 31 38 46
-8.493 20.738 -40.315 30 39 46
-8.373 21.050 -40.305 28 39 45
-8.248 21.359 -40.302 28 39 45
-8.115 21.665 -40.297 29 40 46
-7.975 21.967 -40.290 30 41 47
-7.827 22.266 -40.284 30 41 47
-7.670 22.560 -40.271 31 42 46
-7.505 22.850 -40.256 31 42 46
-7.333 23.135 -40.242 31 42 46
-7.153 23.416 -40.223 30 41 45
-6.967 23.692 -40.207 32 41 48
-6.774 23.963 -40.190 32 41 48
-6.576 24.230 -40.177 27 36 43
-6.373 24.494 -40.171 29 38 45
-6.164 24.753 -40.167 31 38 44
-5.949 25.006 -40.160 32 39 45
-5.727 25.254 -40.154 29 36 42
-5.499 25.496 -40.147 30 37 43
-5.264 25.731 -40.136 29 36 42
-5.024 25.960 -40.123 28 35 41
-4.778 26.183 -40.111 32 39 45
-4.527 26.401 -40.101 32 39 45
-4.272 26.613 -40.095 31 38 44
-4.012 26.820 -40.092 31 38 44
-3.748 27.021 -40.095 31 38 44
-3.480 27.217 -40.099 31 38 44
-3.206 27.405 -40.098 34 39 45
-2.928 27.586 -40.098 33 38 44
-2.645 27.759 -40.097 34 39 45
-2.359 27.929 -40.104 29 34 40
-2.071 28.094 -40.122 17 24 32
-1.780 28.254 -40.147 18 25 33
-1.484 28.406 -40.170 18 25 33
-1.184 28.550 -40.187 19 26 34
-0.880 28.684 -40.197 14 23 28
-0.571 28.808 -40.199 16 25 30
-0.259 28.923 -40.195 19 28 33
0.056 29.029 -40.190 17 26 31
0.374 29.130 -40.192 26 35 42
0.693 29.225 -40.197 29 38 45
1.014 29.310 -40.198 28 37 44
1.338 29.389 -40.206 19 28 35
1.663 29.459 -40.209 22 29 35
1.990 29.519 -40.206 28 35 41
2.319 29.573 -40.210 25 32 38
2.648 29.621 -40.219 14 21 27
2.978 29.669 -40.254 8 15 21
3.310 29.695 -40.247 6 13 19
3.643 29.715 -40.246 6 13 19
3.976 29.727 -40.245 5 12 18
4.309 30.672 -45.847 19 26 34
4.665 30.668 -45.847 21 28 36
5.021 30.655 -45.847 23 30 38
5.376 30.633 -45.847 23 30 38
5.731 30.602 -45.847 24 31 39
6.085 30.563 -45.847 23 30 38
6.438 30.515 -45.847 26 33 41
6.790 30.458 -45.847 23 30 38
7.140 30.393 -45.847 23 30 38
7.489 30.319 -45.847 22 29 37
7.835 30.237 -45.847 24 31 39
8.180 30.146 -45.847 20 27 35
8.522 30.047 -45.847 18 25 33
8.862 29.939 -45.847 11 18 26
9.198 29.824 -45.847 18 25 33
9.532 29.699 -45.847 23 30 38
9.863 29.567 -45.847 23 30 38
10.191 29.427 -45.847 22 29 37
10.514 29.278 -45.847 16 23 31
10.834 29.122 -45.847 19 26 34
11.151 28.958 -45.847 19 26 34
11.463 28.786 -45.847 18 25 33
11.771 28.607 -45.847 20 27 35
12.074 28.420 -45.847 20 27 35
12.372 28.226 -45.847 20 29 36
12.666 28.024 -45.847 19 28 35
12.955 27.816 -45.847 18 27 34
13.238 27.600 -45.847 19 28 35
13.516 27.377 -45.847 18 25 33
13.789 27.148 -45.847 17 24 32
14.056 26.912 -45.847 20 27 35
14.317 26.670 -45.847 18 25 33
14.572 26.421 -45.847 17 24 32
14.821 26.166 -45.847 19 26 34
15.063 25.905 -45.847 19 26 34
15.299 25.638 -45.847 18 25 33
15.528 25.365 -45.847 19 23 32
15.751 25.087 -45.847 16 20 29
15.967 24.804 -45.847 14 18 27
16.175 24.515 -45.847 14 18 27
16.377 24.221 -45.847 12 16 25
16.571 23.923 -45.847 11 15 24
16.758 23.620 -45.847 11 15 24
16.937 23.312 -45.847 12 16 25
17.109 23.000 -45.847 9 13 22
17.273 22.684 -45.847 9 13 22
17.429 22.363 -45.847 10 14 23
17.578 22.040 -45.847 8 12 21
17.718 21.712 -45.847 7 14 22
17.850 21.381 -45.847 7 14 22
17.975 21.047 -45.847 7 14 22
18.090 20.711 -45.847 6 13 21
18.198 20.371 -45.847 7 14 22
18.297 20.029 -45.847 8 15 23
18.388 19.684 -45.847 9 16 24
18.470 19.338 -45.847 8 15 23
18.544 18.989 -45.847 6 13 21
18.609 18.639 -45.847 7 14 22
18.666 18.287 -45.847 9 16 24
18.714 17.934 -45.847 13 20 28
18.753 17.580 -45.847 12 19 27
18.784 17.225 -45.847 9 16 24
18.805 16.870 -45.847 8 15 23
18.819 16.514 -45.847 9 16 24
18.823 16.158 -45.847 14 21 29
18.819 15.802 -45.847 10 17 25
18.805 15.446 -45.847 11 18 26
18.784 15.090 -45.847 8 15 23
18.753 14.735 -45.847 7 14 22
18.714 14.381 -45.847 7 14 22
18.661 14.029 -45.829 6 13 21
18.583 13.681 -45.758 7 14 22
18.495 13.336 -45.683 6 13 21
18.400 12.993 -45.610 5 12 20
18.299 12.653 -45.545 10 17 25
18.192 12.316 -45.486 18 25 33
18.076 11.982 -45.427 17 24 32
17.952 11.651 -45.368 19 26 34
17.820 11.323 -45.308 19 26 34
17.681 10.999 -45.249 21 28 36
17.535 10.679 -45.194 20 24 33
17.382 10.363 -45.142 20 24 33
17.222 10.050 -45.089 21 25 34
17.053 9.743 -45.033 23 27 36
16.877 9.440 -44.978 24 31 39
16.694 9.142 -44.924 19 26 34
16.504 8.848 -44.872 19 26 34
16.307 8.560 -44.818 16 23 31
16.104 8.277 -44.763 19 23 32
15.894 7.999 -44.711 18 22 31
15.677 7.726 -44.659 18 22 31
15.455 7.459 -44.608 16 20 29
15.226 7.198 -44.557 19 23 32
14.990 6.944 -44.503 16 20 29
14.748 6.696 -44.446 16 20 29
14.501 6.454 -44.393 16 20 29
14.250 6.217 -44.346 16 20 29
13.994 5.985 -44.302 18 22 31
13.732 5.761 -44.257 17 21 30
13.464 5.544 -44.207 16 20 29
13.191 5.334 -44.157 16 20 29
12.914 5.131 -44.110 16 20 29
12.633 4.934 -44.064 15 19 28
12.347 4.745 -44.017 17 21 30
12.056 4.564 -43.967 17 21 30
11.761 4.389 -43.920 18 22 31
11.463 4.221 -43.877 18 22 31
11.162 4.060 -43.837 16 20 29
10.857 3.906 -43.796 19 23 32
10.549 3.761 -43.751 19 23 32
10.236 3.625 -43.704 23 27 36
9.922 3.495 -43.659 24 28 37
9.604 3.374 -43.616 26 30 39
9.284 3.260 -43.572 29 33 42
8.961 3.155 -43.526 28 32 41
8.636 3.059 -43.477 27 31 40
8.309 2.971 -43.425 25 34 41
7.980 2.891 -43.379 19 28 35
7.650 2.817 -43.336 9 18 25
7.320 2.750 -43.300 7 16 23
6.988 2.690 -43.266 4 11 19
6.655 2.639 -43.233 5 10 16
6.321 2.595 -43.200 3 8 14
5.986 2.560 -43.165 3 8 14
5.651 2.534 -43.129 5 8 15
5.315 2.517 -43.089 5 8 15
4.979 2.509 -43.049 5 8 15
4.644 2.508 -43.011 6 9 16
4.309 2.514 -42.978 8 11 20
3.974 2.528 -42.945 8 11 20
3.640 2.550 -42.913 22 25 34
3.307 2.580 -42.881 30 33 42
2.975 2.618 -42.851 31 37 49
2.644 2.662 -42.827 29 37 48
2.315 2.714 -42.803 27 35 46
1.987 2.775 -42.777 30 38 49
1.660 2.844 -42.751 34 43 52
1.336 2.920 -42.724 34 43 50
1.014 3.004 -42.701 38 47 54
0.694 3.096 -42.678 35 44 51
0.376 3.195 -42.657 34 41 49
0.062 3.302 -42.633 34 38 47
-0.250 3.417 -42.607 31 35 44
-0.558 3.540 -42.583 29 33 42
-0.864 3.670 -42.559 26 30 39
-1.166 3.807 -42.536 25 30 36
-1.464 3.951 -42.513 24 29 35
-1.759 4.103 -42.491 25 30 36
-2.051 4.260 -42.472 22 26 35
-2.339 4.424 -42.458 20 24 33
-2.622 4.595 -42.441 17 21 30
-2.900 4.774 -42.419 9 13 22
-3.173 4.961 -42.392 9 12 21
-3.439 5.156 -42.359 16 19 26
-3.701 5.359 -42.323 24 27 34
-3.954 5.570 -42.274 24 27 34
-4.201 5.789 -42.219 21 28 34
-4.443 6.012 -42.169 21 28 34
-4.680 6.240 -42.124 21 28 34
-4.912 6.473 -42.084 21 28 34
-5.140 6.709 -42.050 20 29 34
-5.362 6.950 -42.019 20 29 34
-5.578 7.197 -41.986 20 29 34
-5.787 7.449 -41.951 20 29 34
-5.990 7.706 -41.919 21 26 32
-6.187 7.966 -41.891 22 25 32
-6.379 8.231 -41.864 22 25 32
-6.563 8.501 -41.834 22 25 32
-6.739 8.776 -41.801 25 30 36
-6.909 9.054 -41.770 25 30 36
-7.072 9.336 -41.742 22 27 33
-7.228 9.622 -41.712 22 27 33
-7.377 9.912 -41.681 22 25 32
-7.518 10.204 -41.650 22 25 32
-7.652 10.501 -41.617 24 27 34
-7.780 10.799 -41.590 24 27 34
-7.899 11.101 -41.561 23 26 33
-8.011 11.405 -41.531 23 26 33
-8.116 11.712 -41.502 23 26 33
-8.213 12.021 -41.474 14 17 24
-8.301 12.333 -41.440 9 12 19
-8.380 12.646 -41.403 15 18 25
-8.452 12.961 -41.365 24 27 34
-8.515 13.278 -41.328 24 27 34
-8.570 13.596 -41.289 25 28 35
-8.617 13.915 -41.248 25 28 35
-8.658 14.234 -41.212 24 27 34
-8.691 14.554 -41.178 24 27 34
-8.716 14.875 -41.143 19 22 29
-8.733 15.196 -41.110 22 25 32
-8.745 15.516 -41.084 23 26 33
-8.750 15.837 -41.061 24 27 34
-8.748 16.158 -41.042 25 28 35
-8.738 16.478 -41.023 24 27 34
-8.720 16.798 -41.001 23 26 33
-8.693 17.117 -40.979 25 28 35
-8.659 17.435 -40.955 23 30 36
-8.615 17.752 -40.926 23 32 37
-8.564 18.067 -40.900 24 33 38
-8.507 18.381 -40.879 27 36 41
-8.441 18.694 -40.853 28 35 41
-8.368 19.004 -40.829 30 35 41
-8.287 19.313 -40.805 31 36 42
-8.197 19.619 -40.777 31 36 42
-8.102 19.923 -40.754 34 37 44
-7.999 20.224 -40.729 25 28 35
-7.888 20.522 -40.702 20 25 31
-7.770 20.817 -40.679 34 41 47
-7.648 21.111 -40.665 31 38 44
-7.522 21.402 -40.660 31 38 44
-7.388 21.690 -40.653 32 39 45
-7.247 21.974 -40.648 32 39 45
-7.099 22.255 -40.639 29 38 43
-6.943 22.532 -40.630 30 39 44
-6.781 22.805 -40.621 29 38 43
-6.612 23.073 -40.611 30 39 44
-6.436 23.337 -40.602 32 41 46
-6.255 23.597 -40.593 31 40 45
-6.067 23.853 -40.584 30 39 44
-5.873 24.104 -40.577 27 36 41
-5.674 24.350 -40.571 28 35 41
-5.467 24.591 -40.561 32 37 43
-5.256 24.827 -40.554 32 37 43
-5.039 25.057 -40.548 34 39 45
-4.815 25.282 -40.535 36 41 47
-4.585 25.500 -40.521 34 39 45
-4.350 25.711 -40.505 31 36 42
-4.110 25.918 -40.490 33 38 44
-3.865 26.118 -40.475 34 39 45
-3.615 26.311 -40.456 34 39 45
-3.361 26.499 -40.444 31 36 42
-3.104 26.683 -40.437 34 39 45
-2.842 26.860 -40.431 35 39 48
-2.578 27.032 -40.432 35 39 48
-2.309 27.200 -40.437 20 24 33
-2.037 27.359 -40.440 22 26 35
-1.761 27.514 -40.449 16 21 27
-1.483 27.664 -40.467 16 21 27
-1.202 27.808 -40.486 21 26 32
-0.917 27.946 -40.509 19 24 30
-0.628 28.076 -40.526 2 9 15
-0.335 28.197 -40.539 11 18 24
-0.039 28.310 -40.546 14 21 27
0.260 28.414 -40.551 16 23 29
0.562 28.509 -40.550 16 23 29
0.866 28.600 -40.557 12 19 25
1.173 28.677 -40.547 12 19 25
1.481 28.748 -40.539 13 20 26
1.792 28.811 -40.531 16 23 29
2.103 28.868 -40.525 16 23 29
2.417 28.913 -40.510 23 30 36
2.731 28.953 -40.500 18 25 31
3.045 28.993 -40.516 16 23 29
3.361 29.012 -40.490 16 23 29
3.676 29.032 -40.490 17 24 30
3.992 29.062 -40.551 14 21 27
4.309 29.887 -46.078 21 25 34
4.646 29.883 -46.078 23 27 36
4.982 29.871 -46.078 24 28 37
5.319 29.850 -46.078 24 28 37
5.654 29.821 -46.078 23 30 38
5.989 29.784 -46.078 22 29 37
6.323 29.739 -46.078 24 31 39
6.656 29.685 -46.078 22 29 37
6.987 29.623 -46.078 23 30 38
7.317 29.554 -46.078 22 29 37
7.645 29.476 -46.078 19 26 34
7.971 29.390 -46.078 23 30 38
8.294 29.296 -46.078 20 27 35
8.615 29.194 -46.078 21 28 36
8.934 29.085 -46.078 21 28 36
9.250 28.967 -46.078 20 27 35
9.563 28.842 -46.078 22 29 37
9.872 28.709 -46.078 21 28 36
10.179 28.569 -46.078 19 26 34
10.482 28.421 -46.078 18 25 33
10.781 28.266 -46.078 21 28 36
11.076 28.104 -46.078 20 27 35
11.367 27.934 -46.078 20 27 35
11.654 27.757 -46.078 18 25 33
11.936 27.573 -46.078 20 27 35
12.214 27.383 -46.078 19 26 34
12.487 27.185 -46.078 20 27 35
12.756 26.981 -46.078 18 25 33
13.019 26.771 -46.078 19 26 34
13.276 26.554 -46.078 17 24 32
13.529 26.331 -46.078 17 24 32
13.776 26.101 -46.078 16 23 31
14.017 25.866 -46.078 16 23 31
14.252 25.625 -46.078 16 23 31
14.482 25.378 -46.078 13 20 28
14.705 25.125 -46.078 14 21 29
14.922 24.868 -46.078 13 17 26
15.132 24.605 -46.078 13 17 26
15.336 24.336 -46.078 13 17 26
15.534 24.063 -46.078 12 16 25
15.724 23.785 -46.078 12 17 23
15.908 23.503 -46.078 13 18 24
16.085 23.216 -46.078 15 20 26
16.255 22.925 -46.078 16 21 27
16.417 22.630 -46.078 18 22 31
16.572 22.331 -46.078 18 22 31
16.720 22.028 -46.078 19 23 32
16.860 21.721 -46.078 20 24 33
16.993 21.412 -46.078 19 26 34
17.118 21.099 -46.078 20 27 35
17.236 20.783 -46.078 22 29 37
17.345 20.464 -46.078 20 27 35
17.447 20.143 -46.078 20 27 35
17.541 19.820 -46.078 22 29 37
17.627 19.494 -46.078 21 28 36
17.705 19.166 -46.078 24 31 39
17.774 18.836 -46.078 22 29 37
17.836 18.505 -46.078 20 27 35
17.890 18.172 -46.078 20 27 35
17.935 17.838 -46.078 16 23 31
17.972 17.503 -46.078 20 24 33
18.001 17.168 -46.078 20 24 33
18.022 16.831 -46.078 19 23 32
18.034 16.495 -46.078 18 22 31
18.038 16.158 -46.078 16 23 31
18.034 15.821 -46.078 10 17 25
18.022 15.484 -46.078 6 13 21
18.001 15.148 -46.078 5 12 20
17.972 14.812 -46.078 6 13 21
17.935 14.477 -46.078 7 14 22
17.890 14.143 -46.078 8 15 23
17.835 13.811 -46.073 7 14 22
17.751 13.484 -45.996 6 13 21
17.661 13.159 -45.922 5 12 20
17.565 12.837 -45.855 7 14 22
17.463 12.518 -45.795 8 15 23
17.353 12.201 -45.735 12 19 27
17.236 11.887 -45.676 9 16 24
17.111 11.577 -45.614 9 16 24
16.979 11.270 -45.554 8 15 23
16.840 10.967 -45.498 14 18 27
16.695 10.667 -45.445 14 18 27
16.542 10.372 -45.390 13 17 26
16.382 10.081 -45.331 19 23 32
16.214 9.794 -45.274 21 28 36
16.042 9.511 -45.223 18 25 33
15.862 9.233 -45.168 17 24 32
15.675 8.960 -45.112 16 23 31
15.482 8.692 -45.057 14 18 27
15.283 8.429 -45.003 14 18 27
15.077 8.171 -44.948 15 19 28
14.867 7.918 -44.899 15 19 28
14.650 7.671 -44.847 18 22 31
14.427 7.430 -44.793 18 22 31
14.198 7.195 -44.736 16 20 29
13.964 6.965 -44.686 16 20 29
13.727 6.739 -44.644 18 21 28
13.486 6.519 -44.606 15 18 25
13.239 6.305 -44.566 16 19 26
12.985 6.099 -44.518 12 15 22
12.727 5.900 -44.468 8 11 20
12.464 5.707 -44.421 8 11 20
12.198 5.521 -44.375 7 10 19
11.927 5.341 -44.330 8 11 20
11.652 5.168 -44.283 9 13 22
11.373 5.002 -44.238 8 12 21
11.091 4.842 -44.197 7 11 20
10.806 4.689 -44.158 13 17 26
10.517 4.543 -44.117 15 18 25
10.224 4.406 -44.072 15 18 25
9.928 4.276 -44.028 16 19 26
9.631 4.152 -43.988 20 23 30
9.330 4.035 -43.949 18 21 28
9.027 3.927 -43.906 17 20 27
8.721 3.827 -43.860 14 17 24
8.412 3.736 -43.811 13 16 23
8.102 3.653 -43.761 11 14 21
7.791 3.576 -43.715 11 14 21
7.477 3.508 -43.668 10 13 20
7.163 3.448 -43.617 8 11 18
6.847 3.395 -43.567 8 11 18
6.531 3.350 -43.521 5 8 13
6.214 3.310 -43.481 3 6 11
5.897 3.278 -43.446 3 6 11
5.580 3.252 -43.411 2 5 10
5.262 3.235 -43.376 2 5 10
4.944 3.225 -43.345 3 6 11
4.626 3.221 -43.317 4 7 12
4.309 3.223 -43.294 7 10 19
3.991 3.234 -43.271 4 7 16
3.675 3.253 -43.243 3 6 15
3.359 3.282 -43.213 3 6 15
3.044 3.318 -43.182 2 5 12
2.730 3.360 -43.155 4 4 12
2.418 3.410 -43.129 5 5 13
2.107 3.468 -43.101 3 3 11
1.798 3.534 -43.073 3 3 11
1.490 3.607 -43.046 3 3 11
1.185 3.686 -43.025 4 4 12
0.881 3.773 -43.001 3 3 11
0.581 3.868 -42.974 3 3 11
0.283 3.971 -42.944 2 2 10
-0.012 4.082 -42.913 3 3 11
-0.304 4.199 -42.885 2 2 10
-0.593 4.323 -42.857 3 3 11
-0.879 4.454 -42.829 2 3 8
-1.161 4.593 -42.798 2 3 8
-1.439 4.739 -42.767 3 4 9
-1.713 4.892 -42.734 4 4 12
-1.983 5.051 -42.702 3 3 11
-2.249 5.216 -42.670 1 1 9
-2.511 5.389 -42.637 4 4 12
-2.767 5.568 -42.600 0 2 9
-3.019 5.754 -42.562 0 3 8
-3.263 5.948 -42.512 1 4 9
-3.501 6.151 -42.450 1 4 9
-3.733 6.359 -42.389 1 4 9
-3.962 6.570 -42.340 3 4 9
-4.186 6.786 -42.294 3 4 9
-4.405 7.005 -42.253 3 4 9
-4.620 7.229 -42.216 3 4 9
-4.828 7.459 -42.179 3 4 9
-5.031 7.693 -42.141 3 4 9
-5.228 7.931 -42.103 3 4 9
-5.419 8.174 -42.070 4 5 10
-5.606 8.420 -42.041 4 5 10
-5.786 8.671 -42.011 4 5 10
-5.959 8.926 -41.979 4 5 10
-6.126 9.185 -41.948 4 5 10
-6.288 9.448 -41.920 4 5 10
-6.443 9.713 -41.896 3 4 9
-6.591 9.983 -41.868 3 4 9
-6.731 10.257 -41.836 4 5 10
-6.865 10.533 -41.806 4 5 10
-6.993 10.813 -41.779 3 4 9
-7.115 11.094 -41.756 3 4 9
-7.230 11.378 -41.734 3 4 9
-7.338 11.665 -41.712 3 4 9
-7.438 11.955 -41.690 5 6 11
-7.531 12.247 -41.664 3 4 9
-7.617 12.540 -41.640 0 2 7
-7.696 12.836 -41.618 1 4 9
-7.766 13.133 -41.592 1 4 9
-7.828 13.432 -41.559 1 4 9
-7.882 13.733 -41.526 2 5 10
-7.929 14.034 -41.494 2 5 10
-7.968 14.337 -41.463 1 4 9
-8.001 14.639 -41.434 1 4 9
-8.027 14.943 -41.407 2 5 10
-8.046 15.246 -41.382 0 3 8
-8.060 15.550 -41.366 2 5 10
-8.067 15.854 -41.350 1 4 9
-8.066 16.158 -41.334 0 3 8
-8.058 16.461 -41.319 1 4 9
-8.042 16.764 -41.301 1 4 9
-8.018 17.067 -41.283 2 5 10
-7.988 17.369 -41.268 2 5 12
-7.948 17.670 -41.248 2 5 12
-7.901 17.969 -41.224 1 4 11
-7.845 18.267 -41.198 1 4 11
-7.783 18.563 -41.173 1 4 9
-7.715 18.858 -41.155 1 4 9
-7.640 19.151 -41.136 2 5 10
-7.557 19.441 -41.113 2 5 10
-7.466 19.730 -41.088 2 3 8
-7.369 20.016 -41.067 5 6 11
-7.269 20.300 -41.062 3 6 11
-7.165 20.584 -41.064 2 5 10
-7.053 20.864 -41.064 2 5 10
-6.934 21.141 -41.063 2 5 10
-6.808 21.415 -41.062 4 7 12
-6.675 21.686 -41.061 4 7 12
-6.535 21.954 -41.058 4 7 14
-6.389 22.218 -41.054 7 7 15
-6.236 22.478 -41.052 9 9 17
-6.078 22.735 -41.051 9 9 17
-5.913 22.988 -41.049 4 7 12
-5.741 23.236 -41.046 5 8 13
-5.563 23.479 -41.040 7 10 15
-5.379 23.718 -41.034 12 15 20
-5.190 23.953 -41.028 10 13 20
-4.994 24.183 -41.023 9 12 19
-4.794 24.408 -41.022 12 15 22
-4.588 24.629 -41.019 10 13 20
-4.376 24.843 -41.010 13 16 23
-4.158 25.050 -40.997 14 17 24
-3.935 25.253 -40.985 15 18 25
-3.707 25.450 -40.972 18 21 28
-3.473 25.639 -40.953 16 19 26
-3.234 25.822 -40.930 20 23 30
-2.991 26.000 -40.912 21 24 31
-2.745 26.173 -40.896 24 27 34
-2.494 26.339 -40.879 28 32 41
-2.241 26.501 -40.873 32 36 45
-1.984 26.656 -40.862 17 21 30
-1.724 26.807 -40.860 16 20 29
-1.461 26.952 -40.861 39 42 49
-1.195 27.092 -40.866 44 47 52
-0.926 27.226 -40.876 46 49 54
-0.654 27.353 -40.884 43 46 51
-0.377 27.469 -40.874 42 47 53
-0.097 27.578 -40.865 36 41 47
0.185 27.683 -40.865 30 35 41
0.469 27.781 -40.867 32 37 43
0.756 27.870 -40.861 31 36 40
1.045 27.953 -40.856 28 33 37
1.336 28.025 -40.840 23 28 32
1.629 28.091 -40.827 19 24 28
1.923 28.151 -40.820 15 22 28
2.218 28.206 -40.820 8 15 21
2.515 28.253 -40.818 14 21 27
2.812 28.292 -40.815 15 22 28
3.110 28.328 -40.825 13 20 26
3.410 28.346 -40.797 13 20 26
3.709 28.367 -40.808 10 17 23
4.008 28.402 -40.890 6 13 19
4.309 29.099 -46.296 22 29 37
4.626 29.095 -46.296 23 30 38
4.944 29.083 -46.296 18 25 33
5.261 29.064 -46.296 22 29 37
5.577 29.036 -46.296 22 27 33
5.893 29.001 -46.296 24 29 35
6.208 28.959 -46.296 25 30 36
6.521 28.908 -46.296 24 29 35
6.833 28.850 -46.296 26 30 39
7.144 28.784 -46.296 23 27 38
7.453 28.711 -46.296 22 26 37
7.760 28.630 -46.296 23 27 38
8.065 28.541 -46.296 23 27 36
8.368 28.446 -46.296 20 25 31
8.668 28.342 -46.296 19 24 30
8.966 28.232 -46.296 20 25 31
9.261 28.114 -46.296 17 22 28
9.553 27.989 -46.296 16 21 27
9.842 27.856 -46.296 12 17 23
10.127 27.717 -46.296 14 19 25
10.409 27.571 -46.296 9 13 22
10.687 27.418 -46.296 13 17 28
10.962 27.258 -46.296 18 22 33
11.232 27.091 -46.296 14 18 29
11.498 26.918 -46.296 14 18 29
11.760 26.738 -46.296 16 20 31
12.018 26.552 -46.296 18 22 33
12.270 26.360 -46.296 14 18 29
12.518 26.161 -46.296 13 20 28
12.761 25.957 -46.296 13 20 26
12.999 25.746 -46.296 14 21 27
13.232 25.530 -46.296 13 20 26
13.459 25.308 -46.296 14 21 29
13.681 25.081 -46.296 17 24 32
13.897 24.848 -46.296 21 28 36
14.108 24.610 -46.296 26 33 41
14.312 24.367 -46.296 28 35 45
14.511 24.119 -46.296 31 38 48
14.703 23.867 -46.296 33 40 50
14.889 23.609 -46.296 32 39 49
15.069 23.347 -46.296 32 39 49
15.242 23.081 -46.296 31 38 48
15.409 22.811 -46.296 28 35 45
15.568 22.536 -46.296 27 34 44
15.722 22.258 -46.296 27 34 44
15.868 21.976 -46.296 26 33 43
16.007 21.691 -46.296 24 31 41
16.139 21.402 -46.296 20 27 37
16.265 21.110 -46.296 17 24 34
16.383 20.815 -46.296 16 23 33
16.493 20.517 -46.296 16 23 33
16.597 20.217 -46.296 16 23 33
16.692 19.914 -46.296 16 23 33
16.781 19.609 -46.296 25 32 42
16.862 19.302 -46.296 23 30 40
16.935 18.993 -46.296 27 34 44
17.001 18.682 -46.296 44 48 57
17.059 18.370 -46.296 26 30 39
17.110 18.057 -46.296 20 24 33
17.152 17.742 -46.296 20 24 33
17.187 17.426 -46.296 13 20 28
17.215 17.110 -46.296 18 25 33
17.234 16.793 -46.296 9 16 24
17.246 16.475 -46.296 18 25 33
17.250 16.158 -46.296 17 21 32
17.246 15.840 -46.296 16 20 31
17.234 15.523 -46.296 17 21 32
17.215 15.206 -46.296 14 18 29
17.187 14.889 -46.296 22 26 37
17.152 14.574 -46.296 27 31 42
17.110 14.259 -46.296 27 31 42
17.059 13.945 -46.296 26 30 41
17.001 13.633 -46.296 25 29 38
16.923 13.325 -46.249 25 29 38
16.830 13.021 -46.175 25 29 38
16.732 12.720 -46.107 15 19 28
16.628 12.421 -46.044 7 11 20
16.517 12.125 -45.982 11 15 24
16.398 11.832 -45.919 12 16 25
16.273 11.543 -45.858 10 14 23
16.142 11.256 -45.801 11 14 23
16.005 10.973 -45.748 13 13 23
15.861 10.694 -45.693 14 14 24
15.710 10.419 -45.635 15 15 25
15.552 10.148 -45.579 11 13 25
15.389 9.881 -45.528 11 13 25
15.220 9.618 -45.475 11 13 25
15.044 9.360 -45.423 16 18 30
14.863 9.106 -45.372 17 20 29
14.675 8.857 -45.320 17 17 27
14.482 8.613 -45.267 14 14 24
14.283 8.374 -45.219 13 13 23
14.079 8.140 -45.169 7 10 19
13.868 7.912 -45.114 7 10 19
13.651 7.690 -45.056 7 10 19
13.430 7.474 -45.001 6 9 18
13.204 7.262 -44.951 4 4 12
12.974 7.056 -44.902 5 5 13
12.739 6.856 -44.850 4 4 12
12.498 6.664 -44.793 4 4 12
12.253 6.478 -44.735 3 6 13
12.004 6.297 -44.682 2 5 12
11.751 6.122 -44.629 1 4 11
11.495 5.954 -44.575 1 4 11
11.234 5.793 -44.521 1 4 11
10.970 5.638 -44.470 3 3 11
10.704 5.489 -44.422 3 3 11
10.434 5.346 -44.375 3 3 11
10.160 5.210 -44.328 3 3 11
9.884 5.082 -44.278 3 4 9
9.605 4.960 -44.228 3 4 9
9.323 4.845 -44.183 3 4 9
9.039 4.737 -44.136 3 3 11
8.753 4.637 -44.085 3 3 11
8.464 4.545 -44.032 3 3 11
8.173 4.460 -43.979 3 3 11
7.881 4.380 -43.932 3 4 9
7.588 4.307 -43.891 3 4 9
7.294 4.241 -43.850 3 4 9
6.998 4.183 -43.803 3 4 9
6.700 4.134 -43.754 3 4 9
6.403 4.091 -43.707 3 4 9
6.104 4.054 -43.665 3 4 9
5.805 4.025 -43.625 3 4 9
5.506 4.002 -43.584 3 4 9
5.206 3.987 -43.545 3 4 9
4.907 3.979 -43.508 3 4 9
4.608 3.975 -43.479 3 4 9
4.309 3.978 -43.454 3 4 9
4.010 3.989 -43.427 3 3 11
3.712 4.009 -43.393 3 3 11
3.415 4.037 -43.358 3 3 11
3.118 4.071 -43.325 3 4 9
2.823 4.112 -43.296 4 3 9
2.529 4.160 -43.267 4 3 9
2.237 4.215 -43.235 4 3 9
1.946 4.278 -43.203 4 3 9
1.657 4.348 -43.172 4 3 9
1.370 4.424 -43.145 4 3 9
1.085 4.507 -43.116 4 3 9
0.802 4.598 -43.084 3 3 11
0.522 4.696 -43.051 3 3 11
0.245 4.800 -43.019 3 3 11
-0.030 4.911 -42.989 3 3 11
-0.301 5.028 -42.958 3 4 9
-0.570 5.153 -42.926 3 4 8
-0.834 5.284 -42.893 3 4 8
-1.096 5.421 -42.861 3 4 8
-1.354 5.564 -42.831 3 4 8
-1.608 5.713 -42.800 3 4 9
-1.858 5.869 -42.767 3 4 9
-2.104 6.031 -42.733 3 4 9
-2.345 6.200 -42.693 3 4 8
-2.581 6.375 -42.655 3 4 8
-2.812 6.557 -42.612 3 4 8
-3.037 6.745 -42.561 3 4 8
-3.257 6.939 -42.507 3 4 8
-3.471 7.139 -42.452 3 4 8
-3.681 7.342 -42.401 3 4 8
-3.886 7.550 -42.354 3 4 8
-4.086 7.763 -42.306 3 4 8
-4.280 7.981 -42.257 4 3 8
-4.468 8.203 -42.209 4 3 8
-4.652 8.428 -42.165 4 3 8
-4.832 8.657 -42.129 3 4 8
-5.006 8.889 -42.096 3 4 8
-5.174 9.125 -42.063 3 4 8
-5.337 9.365 -42.030 3 4 8
-5.493 9.608 -41.997 3 4 8
-5.645 9.855 -41.969 3 4 8
-5.791 10.104 -41.943 3 4 8
-5.930 10.358 -41.916 3 4 8
-6.063 10.614 -41.888 3 4 8
-6.189 10.874 -41.862 3 4 8
-6.310 11.135 -41.840 3 4 8
-6.426 11.399 -41.822 3 4 8
-6.535 11.666 -41.805 3 4 8
-6.638 11.935 -41.790 3 4 8
-6.735 12.206 -41.773 3 4 8
-6.824 12.480 -41.757 3 4 8
-6.907 12.755 -41.742 3 4 9
-6.984 13.033 -41.728 3 3 11
-7.053 13.312 -41.713 3 3 11
-7.114 13.593 -41.693 3 3 11
-7.168 13.875 -41.670 1 4 9
-7.215 14.158 -41.648 1 5 8
-7.254 14.443 -41.623 1 5 8
-7.286 14.728 -41.599 1 5 8
-7.311 15.013 -41.574 3 4 8
-7.329 15.299 -41.551 3 4 8
-7.342 15.585 -41.534 3 4 8
-7.348 15.872 -41.515 3 4 8
-7.346 16.158 -41.498 3 4 9
-7.338 16.444 -41.479 3 3 11
-7.322 16.729 -41.459 3 3 11
-7.299 17.014 -41.439 3 3 11
-7.269 17.298 -41.419 3 3 11
-7.232 17.581 -41.399 3 3 11
-7.188 17.863 -41.377 3 3 11
-7.136 18.144 -41.350 2 2 10
-7.077 18.422 -41.324 3 4 9
-7.012 18.700 -41.301 3 4 9
-6.940 18.975 -41.278 3 4 9
-6.862 19.249 -41.257 3 4 9
-6.778 19.521 -41.238 3 4 9
-6.689 19.791 -41.224 3 4 9
-6.595 20.059 -41.219 3 4 9
-6.495 20.325 -41.216 3 4 9
-6.389 20.589 -41.215 3 4 9
-6.277 20.850 -41.215 3 4 9
-6.159 21.109 -41.214 3 4 9
-6.035 21.364 -41.218 3 4 9
-5.904 21.616 -41.216 3 4 9
-5.767 21.865 -41.216 4 3 9
-5.624 22.111 -41.217 4 3 9
-5.475 22.353 -41.218 4 3 9
-5.320 22.592 -41.219 3 4 9
-5.160 22.826 -41.220 3 4 9
-4.993 23.056 -41.220 3 4 9
-4.821 23.283 -41.221 3 4 9
-4.643 23.505 -41.220 3 4 9
-4.461 23.722 -41.222 3 4 9
-4.273 23.936 -41.227 3 4 9
-4.081 24.145 -41.230 3 4 9
-3.882 24.349 -41.231 3 4 9
-3.679 24.547 -41.231 3 4 9
-3.471 24.741 -41.233 4 5 10
-3.258 24.930 -41.236 4 5 10
-3.040 25.113 -41.234 5 5 13
-2.817 25.289 -41.226 4 4 12
-2.590 25.460 -41.221 4 4 12
-2.359 25.626 -41.218 4 4 12
-2.125 25.786 -41.217 7 7 15
-1.887 25.942 -41.219 7 7 17
-1.645 26.090 -41.218 8 8 18
-1.400 26.236 -41.227 9 9 19
-1.155 26.379 -41.253 12 13 18
-0.904 26.514 -41.272 10 11 16
-0.651 26.645 -41.294 11 12 17
-0.394 26.766 -41.306 11 12 17
-0.132 26.880 -41.312 12 12 20
0.132 26.986 -41.312 12 12 20
0.399 27.084 -41.310 13 13 21
0.668 27.179 -41.319 12 12 20
0.939 27.267 -41.326 12 13 18
1.211 27.350 -41.339 12 13 18
1.486 27.426 -41.354 10 11 16
1.763 27.494 -41.362 18 19 24
2.042 27.553 -41.361 14 17 22
2.323 27.604 -41.355 18 21 26
2.605 27.644 -41.336 21 24 29
2.888 27.679 -41.323 32 35 40
3.171 27.708 -41.315 35 38 43
3.456 27.720 -41.269 38 41 46
3.740 27.740 -41.278 38 41 46
4.024 27.759 -41.309 40 43 48
4.309 28.307 -46.502 7 14 22
4.607 28.303 -46.502 8 15 23
4.905 28.292 -46.502 6 13 21
5.202 28.274 -46.502 10 17 25
5.500 28.248 -46.502 14 19 25
5.796 28.215 -46.502 13 18 24
6.091 28.175 -46.502 12 17 23
6.386 28.128 -46.502 13 18 24
6.679 28.073 -46.502 13 17 26
6.971 28.012 -46.502 12 16 25
7.261 27.943 -46.502 13 17 26
7.549 27.867 -46.502 8 12 21
7.835 27.784 -46.502 9 14 20
8.120 27.694 -46.502 9 14 20
8.402 27.597 -46.502 13 18 24
8.681 27.493 -46.502 14 19 25
8.958 27.382 -46.502 17 22 28
9.232 27.265 -46.502 17 22 28
9.503 27.140 -46.502 19 24 30
9.771 27.010 -46.502 20 25 31
10.036 26.872 -46.502 20 24 33
10.297 26.728 -46.502 21 25 34
10.555 26.578 -46.502 22 26 35
10.808 26.422 -46.502 18 22 31
11.058 26.259 -46.502 20 24 33
11.304 26.091 -46.502 14 18 27
11.546 25.916 -46.502 12 16 25
11.783 25.735 -46.502 19 23 32
12.016 25.549 -46.502 22 27 33
12.244 25.357 -46.502 26 31 37
12.468 25.160 -46.502 26 31 37
12.686 24.957 -46.502 31 36 42
12.899 24.748 -46.502 34 39 45
13.108 24.535 -46.502 35 40 46
13.311 24.317 -46.502 34 39 45
13.508 24.093 -46.502 33 38 44
13.700 23.865 -46.502 33 37 46
13.886 23.632 -46.502 34 38 47
14.067 23.395 -46.502 35 39 48
14.242 23.153 -46.502 32 36 45
14.410 22.907 -46.502 35 39 48
14.573 22.657 -46.502 30 34 43
14.729 22.404 -46.502 24 28 37
14.879 22.146 -46.502 20 24 33
15.023 21.885 -46.502 16 20 29
15.161 21.620 -46.502 17 21 30
15.291 21.352 -46.502 19 23 32
15.415 21.081 -46.502 18 22 31
15.533 20.807 -46.502 17 21 30
15.644 20.530 -46.502 18 22 31
15.748 20.251 -46.502 18 22 31
15.845 19.969 -46.502 18 22 31
15.935 19.684 -46.502 18 22 31
16.018 19.398 -46.502 26 30 39
16.094 19.110 -46.502 21 25 34
16.163 18.820 -46.502 24 28 37
16.224 18.528 -46.502 26 29 36
16.279 18.235 -46.502 19 22 29
16.326 17.940 -46.502 17 20 27
16.366 17.645 -46.502 17 20 27
16.399 17.349 -46.502 17 22 28
16.425 17.051 -46.502 12 17 23
16.443 16.754 -46.502 16 21 27
16.454 16.456 -46.502 13 18 24
16.458 16.158 -46.502 12 15 24
16.454 15.860 -46.502 11 14 23
16.443 15.562 -46.502 12 15 24
16.425 15.264 -46.502 11 14 23
16.399 14.967 -46.502 9 12 21
16.366 14.671 -46.502 7 10 19
16.326 14.375 -46.502 8 11 20
16.279 14.081 -46.502 7 10 19
16.224 13.788 -46.502 6 9 16
16.163 13.496 -46.502 5 8 15
16.088 13.207 -46.480 5 8 15
15.996 12.923 -46.413 5 8 15
15.897 12.643 -46.344 4 7 14
15.790 12.365 -46.274 2 5 12
15.676 12.090 -46.200 3 6 13
15.556 11.819 -46.126 2 5 12
15.430 11.551 -46.056 3 3 11
15.298 11.287 -45.986 3 3 11
15.159 11.026 -45.917 4 4 12
15.014 10.769 -45.847 4 4 12
14.864 10.516 -45.780 3 3 13
14.709 10.266 -45.721 3 3 13
14.549 10.020 -45.664 4 4 14
14.384 9.778 -45.608 4 4 14
14.212 9.540 -45.552 3 3 11
14.036 9.307 -45.496 5 5 13
13.853 9.079 -45.441 5 5 13
13.667 8.855 -45.389 4 4 12
13.474 8.636 -45.334 1 4 11
13.276 8.423 -45.277 1 4 11
13.072 8.215 -45.216 3 6 13
12.863 8.013 -45.156 2 5 12
12.651 7.815 -45.100 4 4 12
12.434 7.623 -45.045 4 4 12
12.213 7.437 -44.989 3 3 11
11.987 7.257 -44.929 3 3 11
11.756 7.083 -44.868 2 5 12
11.522 6.914 -44.809 1 4 11
11.284 6.752 -44.749 1 4 11
11.043 6.596 -44.690 1 4 11
10.798 6.446 -44.630 3 3 11
10.550 6.302 -44.573 3 3 11
10.299 6.163 -44.519 3 3 11
10.045 6.031 -44.463 3 3 11
9.789 5.906 -44.408 3 4 9
9.529 5.787 -44.352 3 4 9
9.267 5.674 -44.299 3 4 9
9.004 5.566 -44.251 3 4 9
8.738 5.466 -44.203 3 3 11
8.469 5.372 -44.154 3 3 11
8.199 5.284 -44.104 3 3 11
7.927 5.204 -44.054 3 3 11
7.654 5.130 -44.008 3 4 9
7.380 5.061 -43.967 3 4 9
7.104 4.998 -43.927 3 4 9
6.827 4.943 -43.888 3 4 9
6.549 4.894 -43.848 3 4 9
6.270 4.852 -43.808 3 4 9
5.991 4.817 -43.769 3 4 9
5.711 4.790 -43.728 3 4 9
5.430 4.768 -43.689 3 4 9
5.150 4.754 -43.650 3 4 9
4.869 4.746 -43.611 3 4 9
4.589 4.745 -43.578 3 4 9
4.309 4.749 -43.546 3 4 9
4.029 4.761 -43.512 3 4 9
3.750 4.781 -43.474 3 4 9
3.472 4.808 -43.434 3 4 9
3.194 4.841 -43.397 3 4 9
2.918 4.880 -43.364 3 4 9
2.643 4.925 -43.334 3 4 9
2.369 4.977 -43.303 3 4 9
2.097 5.036 -43.269 3 4 9
1.826 5.103 -43.234 3 4 9
1.558 5.174 -43.203 3 4 9
1.291 5.252 -43.175 3 4 9
1.026 5.336 -43.146 3 3 11
0.764 5.428 -43.112 3 3 11
0.505 5.526 -43.078 3 3 11
0.248 5.630 -43.046 3 3 11
-0.006 5.741 -43.012 3 4 9
-0.257 5.858 -42.979 3 4 9
-0.505 5.981 -42.943 3 4 9
-0.749 6.110 -42.909 3 4 9
-0.990 6.244 -42.877 3 4 9
-1.228 6.384 -42.846 3 4 9
-1.462 6.530 -42.814 3 4 9
-1.692 6.682 -42.777 3 4 9
-1.917 6.841 -42.736 3 4 9
-2.138 7.004 -42.696 3 4 9
-2.354 7.174 -42.653 3 4 9
-2.565 7.350 -42.605 3 4 9
-2.771 7.531 -42.553 3 4 9
-2.972 7.718 -42.498 3 4 9
-3.168 7.909 -42.444 3 4 9
-3.359 8.104 -42.393 3 4 9
-3.545 8.304 -42.340 3 4 9
-3.726 8.508 -42.288 3 4 9
-3.901 8.716 -42.236 3 4 9
-4.073 8.928 -42.192 3 4 9
-4.241 9.141 -42.156 3 4 9
-4.404 9.358 -42.123 3 4 9
-4.562 9.579 -42.091 3 4 9
-4.714 9.803 -42.057 3 4 9
-4.860 10.031 -42.022 3 4 9
-5.001 10.262 -41.992 3 4 9
-5.137 10.496 -41.964 3 4 9
-5.267 10.733 -41.935 3 4 9
-5.391 10.973 -41.908 3 4 9
-5.509 11.216 -41.881 3 4 9
-5.623 11.460 -41.861 3 4 9
-5.732 11.707 -41.845 3 4 9
-5.835 11.956 -41.834 3 4 9
-5.933 12.207 -41.825 3 4 9
-6.025 12.460 -41.815 3 4 9
-6.110 12.716 -41.806 3 4 9
-6.190 12.973 -41.800 3 3 11
-6.264 13.232 -41.794 3 3 11
-6.331 13.493 -41.788 3 3 11
-6.390 13.755 -41.774 3 3 11
-6.441 14.020 -41.754 1 4 9
-6.485 14.285 -41.737 1 4 9
-6.524 14.551 -41.719 1 4 9
-6.556 14.818 -41.703 1 4 9
-6.581 15.085 -41.683 3 4 9
-6.599 15.353 -41.662 3 4 9
-6.611 15.621 -41.646 3 4 9
-6.616 15.890 -41.629 3 4 9
-6.616 16.158 -41.613 3 3 11
-6.608 16.426 -41.595 3 3 11
-6.592 16.693 -41.572 3 3 11
-6.570 16.960 -41.547 3 3 11
-6.540 17.226 -41.521 3 3 11
-6.504 17.491 -41.496 3 3 11
-6.462 17.755 -41.470 3 3 11
-6.412 18.018 -41.441 2 2 10
-6.357 18.279 -41.415 3 4 9
-6.296 18.539 -41.391 3 4 9
-6.229 18.797 -41.368 3 4 9
-6.156 19.054 -41.347 3 4 9
-6.077 19.308 -41.329 3 4 9
-5.994 19.561 -41.315 3 4 9
-5.905 19.812 -41.308 3 4 9
-5.811 20.061 -41.302 3 4 9
-5.712 20.308 -41.300 3 4 9
-5.606 20.553 -41.298 3 4 9
-5.495 20.795 -41.297 3 4 9
-5.379 21.034 -41.298 3 4 9
-5.256 21.270 -41.296 3 4 9
-5.127 21.503 -41.295 3 4 9
-4.993 21.733 -41.295 3 4 9
-4.853 21.960 -41.294 3 4 9
-4.708 22.183 -41.294 3 4 9
-4.558 22.402 -41.295 3 4 9
-4.402 22.618 -41.295 3 4 9
-4.241 22.830 -41.296 3 4 9
-4.074 23.038 -41.295 3 4 9
-3.904 23.242 -41.297 3 4 9
-3.728 23.442 -41.304 3 4 9
-3.549 23.639 -41.311 3 4 9
-3.364 23.830 -41.317 2 3 8
-3.174 24.017 -41.322 2 3 8
-2.980 24.199 -41.327 3 4 9
-2.781 24.377 -41.333 3 4 9
-2.578 24.549 -41.336 4 4 12
-2.369 24.715 -41.335 3 3 11
-2.157 24.876 -41.334 3 3 11
-1.942 25.033 -41.336 3 3 11
-1.722 25.184 -41.339 3 3 11
-1.500 25.330 -41.344 3 3 11
-1.274 25.472 -41.351 3 3 11
-1.045 25.609 -41.365 4 4 12
-0.814 25.742 -41.387 4 5 10
-0.580 25.870 -41.407 3 4 9
-0.342 25.991 -41.428 3 4 9
-0.101 26.107 -41.445 3 4 9
0.143 26.215 -41.458 3 3 11
0.390 26.317 -41.471 3 3 11
0.639 26.413 -41.484 2 2 10
0.891 26.504 -41.499 3 3 11
1.145 26.588 -41.513 4 5 10
1.401 26.667 -41.531 5 6 11
1.658 26.739 -41.547 7 8 13
1.918 26.806 -41.567 4 5 10
2.179 26.864 -41.581 3 6 11
2.442 26.916 -41.592 2 5 10
2.707 26.959 -41.591 1 4 9
2.972 26.994 -41.588 5 8 13
3.239 27.023 -41.588 8 9 14
3.506 27.038 -41.553 9 10 15
3.773 27.053 -41.550 9 10 15
4.041 27.066 -41.560 11 12 17
4.309 27.512 -46.694 18 25 33
4.587 27.508 -46.694 17 24 32
4.866 27.498 -46.694 15 22 30
5.144 27.481 -46.694 12 19 27
5.422 27.457 -46.694 13 18 24
5.699 27.426 -46.694 12 17 23
5.975 27.389 -46.694 12 17 23
6.250 27.344 -46.694 16 21 27
6.524 27.293 -46.694 12 17 23
6.796 27.236 -46.694 15 20 26
7.067 27.171 -46.694 18 23 29
7.337 27.100 -46.694 21 26 32
7.605 27.023 -46.694 18 23 29
7.870 26.939 -46.694 13 18 24
8.134 26.848 -46.694 11 16 22
8.395 26.751 -46.694 12 17 23
8.654 26.647 -46.694 11 16 22
8.910 26.538 -46.694 11 16 22
9.163 26.421 -46.694 14 19 25
9.414 26.299 -46.694 13 18 24
9.661 26.171 -46.694 9 14 20
9.905 26.037 -46.694 11 16 22
10.146 25.896 -46.694 15 20 26
10.383 25.750 -46.694 10 15 21
10.617 25.598 -46.694 11 16 22
10.846 25.440 -46.694 10 15 21
11.072 25.277 -46.694 31 36 42
11.294 25.108 -46.694 33 38 44
11.512 24.934 -46.694 32 35 42
11.725 24.755 -46.694 34 37 44
11.933 24.570 -46.694 34 37 44
12.138 24.381 -46.694 35 38 45
12.337 24.186 -46.694 33 36 41
12.532 23.987 -46.694 34 37 42
12.721 23.783 -46.694 34 37 42
12.906 23.574 -46.694 33 36 41
13.085 23.361 -46.694 33 36 43
13.259 23.143 -46.694 29 32 39
13.428 22.921 -46.694 29 32 39
13.591 22.695 -46.694 21 24 31
13.749 22.466 -46.694 19 22 29
13.901 22.232 -46.694 15 18 25
14.047 21.995 -46.694 18 21 28
14.188 21.754 -46.694 15 18 25
14.322 21.510 -46.694 11 14 21
14.450 21.263 -46.694 10 13 20
14.572 21.012 -46.694 10 13 20
14.688 20.759 -46.694 10 13 20
14.798 20.503 -46.694 10 13 20
14.902 20.244 -46.694 10 13 20
14.999 19.983 -46.694 7 10 17
15.089 19.719 -46.694 7 10 17
15.174 19.454 -46.694 8 11 18
15.251 19.186 -46.694 8 11 18
15.322 18.917 -46.694 5 8 15
15.387 18.645 -46.694 4 7 14
15.444 18.373 -46.694 6 6 14
15.495 18.099 -46.694 6 7 12
15.540 17.824 -46.694 4 5 10
