ply
format ascii 1.0
element vertex 1411
property float x
property float y
property float z
property uchar red
property uchar green
property uchar blue
end_header
-24.016 -32.653 -3.517 132 110 96
-23.887 -32.573 -3.494 134 112 98
-23.762 -32.491 -3.477 126 104 90
-23.638 -32.409 -3.465 132 110 96
-23.511 -32.331 -3.452 123 101 87
-23.384 -32.255 -3.441 133 111 97
-23.245 -32.199 -3.411 124 108 92
-23.113 -32.134 -3.395 154 138 122
-22.983 -32.067 -3.385 137 124 108
-22.825 -32.048 -3.328 135 123 109
-22.658 -32.056 -3.248 117 109 98
-22.512 -32.030 -3.208 74 67 57
-22.385 -31.967 -3.209 34 29 23
-22.257 -31.908 -3.209 26 23 18
-22.126 -31.857 -3.205 25 24 22
-22.002 -31.787 -3.223 23 22 20
-21.878 -31.713 -3.246 12 11 9
-21.756 -31.629 -3.282 14 13 11
-21.641 -31.514 -3.350 10 14 15
-21.529 -31.378 -3.440 20 24 27
-21.399 -31.289 -3.489 7 11 14
-21.264 -31.212 -3.528 10 14 17
-21.129 -31.126 -3.579 9 10 14
-20.988 -31.055 -3.618 19 18 23
-20.843 -30.995 -3.651 24 24 24
-20.694 -30.954 -3.670 42 38 37
-20.542 -30.929 -3.678 88 86 71
-20.389 -30.911 -3.682 144 142 121
-20.236 -30.890 -3.693 183 181 160
-20.082 -30.870 -3.705 184 182 161
-19.928 -28.087 -6.500 41 50 49
-19.706 -28.102 -6.489 42 51 50
-19.485 -28.137 -6.464 39 48 47
-19.265 -28.174 -6.442 42 51 50
-19.046 -28.209 -6.427 45 50 53
-18.829 -28.250 -6.411 45 50 53
-18.613 -28.301 -6.391 44 49 52
-18.399 -28.351 -6.376 45 50 53
-18.186 -28.405 -6.363 43 47 50
-17.974 -28.463 -6.351 46 50 53
-17.765 -28.528 -6.337 48 52 53
-17.558 -28.599 -6.323 46 50 49
-17.353 -28.675 -6.307 43 47 46
-17.150 -28.754 -6.294 51 55 54
-16.950 -28.839 -6.280 58 62 61
-16.751 -28.927 -6.268 65 69 68
-16.556 -29.022 -6.253 72 74 71
-16.364 -29.122 -6.238 75 77 74
-16.173 -29.225 -6.225 79 81 78
-15.987 -29.333 -6.211 78 80 77
-15.803 -29.445 -6.196 76 81 77
-15.622 -29.563 -6.181 78 80 75
-15.445 -29.683 -6.167 81 82 77
-15.270 -29.808 -6.154 80 81 76
-15.099 -29.936 -6.141 83 84 79
-14.932 -30.069 -6.127 82 83 78
-14.766 -30.203 -6.116 83 84 79
-14.606 -30.343 -6.102 84 85 80
-14.449 -30.486 -6.089 84 84 82
-14.296 -30.634 -6.076 83 84 79
-14.145 -30.783 -6.065 85 86 80
-14.001 -30.937 -6.051 85 86 78
-13.860 -31.095 -6.037 86 87 81
-13.724 -31.257 -6.023 87 88 82
-13.592 -31.420 -6.009 88 89 83
-13.464 -31.587 -5.995 89 90 84
-13.341 -31.757 -5.981 90 90 82
-13.222 -31.930 -5.967 93 93 85
-13.109 -32.106 -5.951 94 94 86
-12.999 -32.283 -5.937 94 94 86
-12.895 -32.464 -5.922 96 96 88
-12.795 -32.646 -5.908 96 96 88
-12.700 -32.831 -5.892 94 94 86
-12.610 -33.018 -5.877 97 97 89
-12.523 -33.205 -5.864 101 98 91
-12.440 -33.394 -5.851 101 98 91
-12.363 -33.585 -5.838 106 103 96
-12.290 -33.777 -5.825 102 99 92
-12.223 -33.971 -5.811 105 102 95
-12.161 -34.167 -5.797 105 102 95
-12.104 -34.363 -5.783 105 102 95
-12.052 -34.561 -5.769 105 102 95
-12.006 -34.760 -5.753 105 100 94
-11.965 -34.959 -5.738 107 102 96
-11.931 -35.160 -5.722 107 102 96
-11.900 -35.360 -5.706 106 101 95
-11.875 -35.561 -5.691 106 101 95
-11.854 -35.762 -5.675 108 103 97
-11.840 -35.963 -5.658 107 102 96
-11.831 -36.164 -5.641 107 102 96
-11.827 -36.365 -5.624 107 103 94
-11.827 -36.565 -5.608 109 105 96
-11.832 -36.765 -5.592 109 105 96
-11.842 -36.964 -5.576 109 105 96
-11.858 -37.163 -5.559 109 105 96
-11.878 -37.361 -5.542 111 107 98
-11.903 -37.557 -5.525 112 108 99
-11.933 -37.753 -5.509 111 107 98
-11.967 -37.947 -5.493 113 109 100
-12.005 -38.140 -5.477 113 109 100
-12.049 -38.332 -5.460 111 107 98
-12.094 -38.522 -5.447 112 108 99
-12.145 -38.711 -5.432 112 108 97
-12.201 -38.898 -5.418 113 109 98
-12.261 -39.083 -5.403 114 110 99
-12.325 -39.267 -5.388 116 112 101
-12.397 -39.448 -5.371 119 115 104
-12.469 -39.627 -5.357 119 115 104
-12.544 -39.805 -5.345 117 113 102
-12.622 -39.981 -5.334 118 114 103
-12.706 -40.155 -5.322 117 113 104
-12.796 -40.324 -5.306 117 113 104
-12.889 -40.492 -5.293 117 113 104
-12.981 -40.660 -5.284 116 112 103
-13.080 -40.823 -5.273 120 113 105
-13.183 -40.984 -5.260 118 111 103
-13.290 -41.142 -5.248 121 114 106
-13.399 -41.297 -5.238 125 118 110
-13.517 -41.446 -5.221 127 119 108
-13.642 -41.590 -5.201 124 116 103
-13.767 -41.732 -5.184 128 120 107
-13.892 -41.873 -5.171 128 120 107
-14.017 -42.014 -5.162 123 113 103
-14.143 -42.153 -5.155 125 117 106
-14.258 -42.302 -5.168 123 117 105
-14.373 -42.452 -5.184 105 103 90
-14.486 -42.605 -5.209 73 69 60
-14.595 -42.765 -5.244 67 64 57
-14.707 -42.923 -5.281 72 69 62
-14.818 -43.087 -5.327 157 151 139
-14.941 -43.239 -5.362 160 151 134
-15.066 -43.393 -5.402 172 164 145
-15.197 -43.542 -5.438 197 188 171
-15.337 -43.682 -5.468 184 175 160
-15.480 -43.820 -5.498 215 209 193
-15.627 -43.954 -5.529 215 209 193
-15.778 -44.087 -5.561 201 196 177
-15.932 -44.218 -5.594 217 212 193
-16.090 -44.344 -5.626 222 215 199
-16.253 -44.463 -5.655 225 219 205
-16.421 -44.577 -5.682 202 199 184
-16.594 -44.684 -5.706 172 170 155
-16.772 -44.782 -5.724 166 160 148
-16.956 -44.868 -5.735 202 196 184
-17.142 -44.950 -5.746 174 168 154
-17.333 -45.017 -5.748 182 177 158
-17.531 -45.064 -5.733 189 180 163
-17.736 -45.085 -5.699 170 157 140
-17.939 -45.102 -5.666 169 156 137
-18.144 -45.109 -5.628 173 158 137
-18.346 -45.116 -5.595 170 149 130
-18.547 -45.121 -5.565 152 129 111
-18.747 -45.125 -5.539 138 115 97
-18.945 -45.130 -5.518 152 129 111
-19.143 -45.129 -5.497 141 118 102
-19.341 -45.126 -5.478 146 123 107
-19.537 -45.118 -5.460 149 126 110
-19.733 -45.108 -5.444 150 127 111
-19.928 -45.095 -5.429 145 122 108
-20.122 -45.077 -5.415 149 126 112
-20.316 -45.055 -5.400 148 125 111
-20.508 -45.029 -5.387 145 122 108
-20.700 -45.000 -5.376 146 120 107
-20.891 -44.967 -5.365 152 126 113
-21.080 -44.931 -5.355 153 127 114
-21.269 -44.890 -5.345 147 121 108
-21.456 -44.843 -5.334 155 129 116
-21.641 -44.790 -5.321 150 124 111
-21.823 -44.730 -5.306 150 124 111
-22.004 -44.665 -5.291 156 130 117
-22.182 -44.595 -5.274 155 129 116
-22.359 -44.520 -5.257 150 124 111
-22.532 -44.442 -5.241 150 124 111
-22.704 -44.359 -5.224 151 125 112
-22.872 -44.271 -5.205 148 122 109
-23.037 -44.177 -5.186 146 120 107
-23.199 -44.080 -5.166 151 125 112
-23.358 -43.978 -5.146 156 130 117
-23.514 -43.873 -5.126 150 124 111
-23.668 -43.764 -5.106 155 129 116
-23.818 -43.653 -5.087 149 123 110
-23.965 -43.538 -5.068 149 123 110
-24.109 -43.420 -5.048 158 132 119
-24.250 -43.299 -5.030 144 118 105
-24.389 -43.178 -5.014 146 120 107
-24.525 -43.054 -4.999 149 123 110
-24.658 -42.927 -4.984 146 120 105
-24.787 -42.796 -4.968 155 129 114
-24.913 -42.663 -4.953 140 114 99
-25.036 -42.528 -4.938 147 121 106
-25.155 -42.390 -4.923 148 122 109
-25.270 -42.249 -4.908 148 122 109
-25.381 -42.105 -4.893 150 124 111
-25.488 -41.959 -4.878 148 122 109
-25.592 -41.811 -4.863 150 124 111
-25.692 -41.661 -4.848 149 123 110
-25.787 -41.509 -4.833 150 124 111
-25.879 -41.354 -4.817 153 127 114
-25.965 -41.197 -4.801 146 120 107
-26.048 -41.038 -4.784 152 126 113
-26.128 -40.879 -4.770 146 120 107
-26.204 -40.718 -4.756 128 102 89
-26.275 -40.556 -4.741 157 130 119
-26.342 -40.391 -4.725 144 117 106
-26.403 -40.225 -4.709 149 122 111
-26.459 -40.058 -4.691 151 124 113
-26.511 -39.890 -4.674 149 122 111
-26.557 -39.720 -4.655 148 121 110
-26.597 -39.549 -4.634 145 118 107
-26.633 -39.378 -4.614 146 119 108
-26.665 -39.207 -4.594 143 116 105
-26.693 -39.035 -4.574 145 118 107
-26.717 -38.863 -4.555 144 117 106
-26.736 -38.692 -4.535 146 119 108
-26.752 -38.520 -4.516 145 119 106
-26.764 -38.349 -4.498 145 119 106
-26.773 -38.178 -4.482 142 116 103
-26.778 -38.008 -4.465 146 120 107
-26.779 -37.838 -4.448 142 116 103
-26.777 -37.668 -4.432 145 119 106
-26.769 -37.499 -4.415 143 117 104
-26.759 -37.331 -4.400 143 117 104
-26.746 -37.163 -4.386 141 114 103
-26.730 -36.996 -4.373 142 115 104
-26.710 -36.830 -4.360 138 111 100
-26.683 -36.665 -4.344 140 113 102
-26.654 -36.500 -4.330 141 114 103
-26.622 -36.337 -4.317 138 111 100
-26.585 -36.176 -4.303 136 109 98
-26.543 -36.015 -4.289 139 112 101
-26.497 -35.856 -4.273 139 112 101
-26.448 -35.699 -4.259 138 111 100
-26.398 -35.542 -4.247 138 111 100
-26.349 -35.386 -4.240 135 108 97
-26.289 -35.233 -4.226 135 109 96
-26.226 -35.082 -4.212 136 110 97
-26.157 -34.934 -4.197 137 111 98
-26.087 -34.787 -4.183 140 114 101
-26.012 -34.643 -4.168 139 113 100
-25.932 -34.501 -4.151 140 114 101
-25.849 -34.362 -4.135 140 114 101
-25.764 -34.226 -4.119 143 117 104
-25.676 -34.091 -4.104 141 115 102
-25.587 -33.957 -4.092 143 117 104
-25.497 -33.825 -4.081 140 114 101
-25.401 -33.697 -4.068 140 114 101
-25.302 -33.572 -4.054 144 118 105
-25.202 -33.448 -4.042 144 118 105
-25.101 -33.326 -4.032 147 121 108
-24.996 -33.207 -4.022 146 120 107
-24.887 -33.093 -4.009 143 115 103
-24.774 -32.982 -3.995 142 114 102
-24.658 -32.876 -3.979 146 118 106
-24.540 -32.772 -3.964 139 111 99
-24.419 -32.671 -3.949 137 111 98
-24.295 -32.576 -3.932 138 112 99
-24.169 -32.484 -3.915 137 111 98
-24.038 -32.398 -3.894 135 109 96
-23.910 -32.311 -3.879 136 110 95
-23.780 -32.228 -3.864 135 107 93
-23.646 -32.150 -3.845 132 104 90
-23.508 -32.080 -3.823 132 104 90
-23.368 -32.014 -3.800 132 109 91
-23.232 -31.945 -3.785 142 119 101
-23.096 -31.877 -3.772 137 116 99
-22.956 -31.818 -3.753 136 117 102
-22.811 -31.769 -3.729 132 113 96
-22.668 -31.720 -3.708 127 110 92
-22.528 -31.665 -3.696 121 105 89
-22.388 -31.614 -3.685 115 102 86
-22.245 -31.568 -3.672 110 96 85
-22.101 -31.531 -3.654 110 97 88
-21.953 -31.505 -3.629 116 103 94
-21.807 -31.476 -3.609 121 108 99
-21.665 -31.438 -3.603 111 102 93
-21.526 -31.388 -3.612 105 96 87
-21.388 -31.334 -3.628 95 86 77
-21.246 -31.292 -3.636 93 84 75
-21.103 -31.256 -3.641 49 46 37
-20.959 -31.222 -3.648 23 20 13
-20.814 -31.191 -3.654 8 5 0
-20.667 -31.169 -3.657 8 4 1
-20.520 -31.155 -3.654 13 12 17
-20.373 -31.124 -3.671 11 10 18
-20.226 -31.097 -3.688 12 11 19
-20.077 -31.081 -3.698 8 7 15
-19.928 -27.926 -6.940 42 51 50
-19.701 -27.937 -6.931 43 52 51
-19.476 -27.968 -6.909 42 51 50
-19.252 -28.001 -6.891 42 51 50
-19.029 -28.036 -6.876 44 50 50
-18.808 -28.079 -6.858 45 51 51
-18.587 -28.126 -6.842 46 52 52
-18.369 -28.176 -6.827 48 54 54
-18.151 -28.231 -6.813 50 55 51
-17.936 -28.290 -6.801 58 63 59
-17.722 -28.355 -6.788 65 70 64
-17.510 -28.425 -6.774 69 74 67
-17.300 -28.501 -6.760 77 79 74
-17.093 -28.580 -6.748 74 76 71
-16.887 -28.665 -6.735 77 79 74
-16.685 -28.755 -6.722 78 80 75
-16.485 -28.850 -6.708 78 79 74
-16.288 -28.952 -6.692 79 80 74
-16.094 -29.058 -6.678 80 81 75
-15.903 -29.167 -6.664 79 80 74
-15.715 -29.281 -6.649 78 81 74
-15.530 -29.399 -6.636 78 81 74
-15.348 -29.521 -6.623 79 80 74
-15.168 -29.647 -6.610 80 79 74
-14.993 -29.777 -6.597 79 80 75
-14.820 -29.911 -6.585 82 83 78
-14.652 -30.049 -6.572 82 83 78
-14.488 -30.192 -6.558 83 84 79
-14.326 -30.337 -6.545 84 84 82
-14.169 -30.487 -6.533 83 84 79
-14.015 -30.639 -6.521 84 85 79
-13.866 -30.796 -6.508 84 85 77
-13.722 -30.957 -6.494 83 84 78
-13.583 -31.122 -6.479 84 85 80
-13.447 -31.289 -6.466 87 88 83
-13.316 -31.459 -6.451 87 88 83
-13.190 -31.633 -6.436 90 90 82
-13.068 -31.809 -6.422 89 89 81
-12.952 -31.989 -6.406 90 90 82
-12.839 -32.170 -6.391 92 92 84
-12.732 -32.355 -6.376 94 94 86
-12.629 -32.541 -6.361 94 94 86
-12.532 -32.730 -6.345 95 95 87
-12.440 -32.921 -6.329 95 95 87
-12.350 -33.113 -6.315 95 95 87
-12.266 -33.306 -6.301 95 95 87
-12.187 -33.502 -6.287 94 94 86
-12.113 -33.699 -6.273 97 97 89
-12.044 -33.897 -6.258 101 98 91
-11.981 -34.097 -6.243 101 98 91
-11.924 -34.299 -6.228 105 102 95
-11.868 -34.500 -6.215 105 102 95
-11.821 -34.704 -6.199 102 97 93
-11.778 -34.907 -6.184 107 102 98
-11.740 -35.112 -6.169 106 101 97
-11.708 -35.317 -6.153 105 100 96
-11.681 -35.522 -6.138 105 100 94
-11.660 -35.728 -6.121 107 102 96
-11.646 -35.934 -6.103 106 101 95
-11.637 -36.140 -6.085 106 101 95
-11.633 -36.346 -6.067 107 102 96
-11.633 -36.551 -6.050 108 103 97
-11.639 -36.756 -6.032 108 103 97
-11.650 -36.960 -6.014 108 103 97
-11.667 -37.163 -5.995 108 103 97
-11.688 -37.365 -5.977 110 105 99
-11.713 -37.567 -5.960 110 105 99
-11.744 -37.767 -5.942 109 104 98
-11.780 -37.965 -5.924 112 107 101
-11.818 -38.163 -5.908 112 107 101
-11.861 -38.359 -5.892 112 107 101
-11.910 -38.554 -5.876 112 107 101
-11.961 -38.748 -5.862 114 110 99
-12.018 -38.939 -5.846 113 109 98
-12.080 -39.129 -5.830 111 107 96
-12.146 -39.316 -5.814 112 108 97
-12.217 -39.502 -5.798 115 111 100
-12.292 -39.686 -5.783 115 111 100
-12.371 -39.867 -5.768 116 112 101
-12.454 -40.046 -5.753 117 113 102
-12.540 -40.223 -5.740 111 109 96
-12.630 -40.398 -5.726 117 115 102
-12.726 -40.569 -5.711 116 114 101
-12.825 -40.738 -5.696 115 113 100
-12.928 -40.904 -5.682 117 113 102
-13.036 -41.067 -5.665 116 112 101
-13.148 -41.227 -5.650 115 111 100
-13.263 -41.384 -5.635 117 113 102
-13.382 -41.537 -5.619 121 114 104
-13.506 -41.686 -5.602 119 112 102
-13.631 -41.833 -5.588 120 113 103
-13.760 -41.976 -5.572 120 113 103
-13.893 -42.115 -5.555 119 111 100
-14.029 -42.251 -5.539 120 112 101
-14.169 -42.383 -5.523 126 116 106
-14.310 -42.512 -5.507 125 115 105
-14.451 -42.640 -5.496 126 118 107
-14.591 -42.768 -5.490 123 119 110
-14.730 -42.898 -5.490 119 115 104
-14.861 -43.037 -5.508 127 118 103
-14.987 -43.183 -5.537 159 151 130
-15.119 -43.325 -5.565 195 187 166
-15.250 -43.470 -5.600 196 188 169
-15.391 -43.605 -5.626 192 184 165
-15.533 -43.741 -5.656 155 148 130
-15.676 -43.878 -5.692 95 90 71
-15.823 -44.011 -5.727 95 90 71
-15.973 -44.144 -5.765 150 144 128
-16.127 -44.273 -5.803 129 123 107
-16.285 -44.400 -5.841 182 175 159
-16.451 -44.514 -5.870 208 201 185
-16.619 -44.628 -5.902 192 185 169
-16.790 -44.738 -5.935 181 175 161
-16.965 -44.845 -5.969 206 200 188
-17.139 -44.957 -6.011 197 195 183
-17.319 -45.061 -6.050 46 46 38
-17.504 -45.155 -6.083 99 96 87
-17.694 -45.236 -6.107 142 138 127
-17.891 -45.295 -6.113 139 133 119
-18.094 -45.330 -6.101 135 128 110
-18.299 -45.353 -6.082 140 128 112
-18.504 -45.369 -6.060 147 134 118
-18.709 -45.379 -6.039 157 144 128
-18.913 -45.392 -6.024 163 150 134
-19.118 -45.383 -5.994 174 157 139
-19.323 -45.358 -5.953 165 146 129
-19.527 -45.334 -5.917 164 145 128
-19.728 -45.314 -5.891 145 126 109
-19.928 -45.294 -5.869 150 128 114
-20.127 -45.273 -5.851 156 134 120
-20.325 -45.249 -5.835 147 125 111
-20.523 -45.223 -5.822 144 122 108
-20.719 -45.194 -5.810 152 126 113
-20.915 -45.163 -5.801 147 121 108
-21.109 -45.128 -5.793 150 124 111
-21.303 -45.085 -5.782 150 124 111
-21.494 -45.037 -5.770 149 126 112
-21.684 -44.983 -5.757 150 127 113
-21.872 -44.923 -5.742 152 129 115
-22.058 -44.859 -5.728 154 131 117
-22.241 -44.788 -5.712 150 124 111
-22.422 -44.713 -5.696 150 124 111
-22.601 -44.634 -5.679 156 130 117
-22.777 -44.550 -5.662 153 127 114
-22.951 -44.460 -5.644 151 125 112
-23.121 -44.366 -5.625 152 126 113
-23.288 -44.268 -5.606 152 126 113
-23.453 -44.165 -5.587 148 122 109
-23.614 -44.059 -5.567 146 120 107
-23.772 -43.949 -5.548 146 120 107
-23.928 -43.837 -5.530 148 122 109
-24.080 -43.720 -5.512 149 123 110
-24.229 -43.600 -5.492 147 121 108
-24.374 -43.476 -5.473 150 124 111
-24.517 -43.351 -5.456 148 122 109
-24.658 -43.224 -5.440 147 121 108
-24.795 -43.094 -5.425 145 119 104
-24.928 -42.960 -5.409 147 121 106
-25.058 -42.823 -5.393 154 128 113
-25.184 -42.683 -5.377 147 121 106
-25.307 -42.542 -5.362 149 123 110
-25.426 -42.397 -5.347 149 123 110
-25.541 -42.250 -5.332 146 120 107
-25.653 -42.101 -5.317 150 124 111
-25.761 -41.950 -5.302 148 122 109
-25.865 -41.796 -5.288 150 124 111
-25.964 -41.640 -5.273 147 121 108
-26.059 -41.481 -5.258 145 119 106
-26.149 -41.320 -5.241 147 121 108
-26.235 -41.157 -5.225 145 119 106
-26.318 -40.993 -5.210 144 118 105
-26.396 -40.827 -5.195 143 117 104
-26.470 -40.659 -5.179 143 116 105
-26.537 -40.490 -5.161 148 121 110
-26.600 -40.318 -5.143 148 121 110
-26.658 -40.146 -5.125 145 118 107
-26.712 -39.973 -5.107 148 121 110
-26.760 -39.798 -5.087 149 122 111
-26.802 -39.623 -5.066 149 122 111
-26.840 -39.446 -5.045 156 129 118
-26.874 -39.270 -5.024 151 124 113
-26.903 -39.093 -5.004 145 118 107
-26.927 -38.916 -4.983 150 123 112
-26.946 -38.739 -4.961 145 118 107
-26.962 -38.562 -4.941 143 117 104
-26.976 -38.386 -4.923 144 118 105
-26.987 -38.210 -4.906 140 114 101
-26.994 -38.034 -4.890 142 116 103
-26.995 -37.859 -4.873 142 116 103
-26.993 -37.684 -4.857 143 117 104
-26.987 -37.510 -4.840 140 114 101
-26.976 -37.336 -4.823 143 117 104
-26.964 -37.163 -4.809 141 114 103
-26.948 -36.991 -4.796 141 114 103
-26.927 -36.819 -4.782 141 114 103
-26.902 -36.648 -4.768 141 114 103
-26.874 -36.479 -4.755 140 113 102
-26.841 -36.310 -4.742 141 114 103
-26.804 -36.143 -4.727 138 111 100
-26.760 -35.977 -4.711 138 111 100
-26.714 -35.813 -4.696 141 114 103
-26.662 -35.651 -4.680 138 111 100
-26.609 -35.489 -4.666 140 113 102
-26.555 -35.329 -4.655 140 113 102
-26.495 -35.171 -4.642 138 112 99
-26.431 -35.015 -4.628 137 111 98
-26.362 -34.861 -4.613 138 112 99
-26.289 -34.709 -4.598 140 114 101
-26.212 -34.560 -4.583 138 112 99
-26.132 -34.413 -4.567 139 113 100
-26.047 -34.269 -4.551 138 112 99
-25.960 -34.127 -4.536 137 111 98
-25.871 -33.986 -4.522 137 111 98
-25.780 -33.848 -4.510 139 113 100
-25.687 -33.711 -4.498 138 112 99
-25.589 -33.578 -4.484 138 112 99
-25.486 -33.449 -4.470 139 112 101
-25.382 -33.322 -4.456 136 109 98
-25.275 -33.197 -4.443 138 111 100
-25.166 -33.075 -4.430 139 112 101
-25.053 -32.957 -4.417 139 112 101
-24.937 -32.842 -4.403 138 111 100
-24.819 -32.730 -4.388 137 110 99
-24.697 -32.622 -4.373 139 112 101
-24.573 -32.518 -4.357 133 110 96
-24.446 -32.417 -4.342 134 111 97
-24.318 -32.319 -4.327 134 111 97
-24.187 -32.226 -4.310 132 109 95
-24.053 -32.136 -4.293 133 109 97
-23.916 -32.053 -4.274 131 107 95
-23.777 -31.973 -4.253 130 106 94
-23.636 -31.899 -4.232 131 107 95
-23.494 -31.827 -4.211 130 107 91
-23.354 -31.753 -4.198 137 114 98
-23.213 -31.682 -4.185 140 118 104
-23.070 -31.617 -4.169 137 118 104
-22.924 -31.557 -4.152 141 119 106
-22.779 -31.498 -4.137 131 109 96
-22.634 -31.442 -4.125 129 110 96
-22.488 -31.388 -4.114 125 107 93
-22.341 -31.337 -4.103 124 105 91
-22.194 -31.288 -4.094 119 100 86
-22.046 -31.244 -4.084 117 98 84
-21.897 -31.202 -4.076 116 97 83
-21.749 -31.160 -4.071 110 90 79
-21.600 -31.123 -4.065 108 88 77
-21.449 -31.092 -4.057 100 80 69
-21.298 -31.062 -4.052 105 85 74
-21.145 -31.043 -4.039 108 90 76
-20.991 -31.035 -4.019 109 91 77
-20.838 -31.029 -4.001 116 100 85
-20.685 -31.026 -3.984 113 101 85
-20.532 -31.030 -3.964 100 92 73
-20.380 -31.032 -3.949 112 104 85
-20.229 -31.031 -3.941 127 119 100
-20.078 -31.032 -3.935 122 114 95
-19.928 -27.798 -7.364 41 50 45
-19.699 -27.822 -7.344 42 51 46
-19.471 -27.855 -7.319 46 55 50
-19.244 -27.887 -7.301 54 63 58
-19.018 -27.921 -7.287 65 70 64
-18.793 -27.963 -7.269 68 71 64
-18.570 -28.009 -7.254 77 80 73
-18.349 -28.060 -7.238 77 80 73
-18.128 -28.116 -7.225 78 79 73
-17.910 -28.174 -7.212 72 73 67
-17.693 -28.240 -7.199 78 79 73
-17.478 -28.310 -7.186 80 81 75
-17.265 -28.385 -7.173 79 80 74
-17.055 -28.466 -7.159 79 80 74
-16.847 -28.552 -7.146 79 80 74
-16.641 -28.641 -7.134 80 81 75
-16.438 -28.736 -7.121 80 81 76
-16.238 -28.838 -7.106 79 79 77
-16.041 -28.944 -7.092 77 77 75
-15.847 -29.055 -7.077 80 80 78
-15.659 -29.176 -7.056 80 81 76
-15.472 -29.297 -7.041 80 81 76
-15.287 -29.421 -7.026 78 79 74
-15.107 -29.549 -7.012 81 82 77
-14.928 -29.680 -6.999 81 82 76
-14.754 -29.816 -6.986 80 81 75
-14.583 -29.956 -6.973 82 83 77
-14.416 -30.100 -6.959 82 83 77
-14.252 -30.247 -6.946 83 84 78
-14.094 -30.400 -6.932 82 83 77
-13.938 -30.554 -6.920 84 85 79
-13.788 -30.713 -6.905 86 87 81
-13.640 -30.875 -6.893 86 87 82
-13.493 -31.037 -6.885 85 86 81
-13.355 -31.206 -6.870 86 87 82
-13.223 -31.379 -6.855 85 86 81
-13.098 -31.558 -6.835 87 88 82
-12.971 -31.733 -6.825 88 89 83
-12.852 -31.915 -6.809 89 90 84
-12.737 -32.099 -6.795 90 91 85
-12.629 -32.286 -6.779 91 92 84
-12.523 -32.474 -6.765 92 93 85
-12.424 -32.665 -6.749 88 89 81
-12.329 -32.858 -6.733 91 92 84
-12.238 -33.053 -6.719 91 92 84
-12.153 -33.249 -6.705 93 94 86
-12.072 -33.447 -6.691 93 94 86
-11.996 -33.647 -6.677 95 96 88
-11.926 -33.849 -6.661 95 95 87
-11.862 -34.052 -6.645 96 96 88
-11.802 -34.255 -6.631 97 97 89
-11.745 -34.460 -6.618 95 95 87
-11.696 -34.666 -6.602 97 97 89
-11.652 -34.873 -6.587 102 99 92
-11.614 -35.080 -6.571 103 100 93
-11.586 -35.290 -6.549 103 100 93
-11.552 -35.497 -6.540 103 98 92
-11.535 -35.707 -6.519 105 100 94
-11.519 -35.915 -6.501 107 102 96
-11.506 -36.124 -6.486 108 103 97
-11.501 -36.333 -6.468 110 107 100
-11.500 -36.541 -6.451 107 104 97
-11.505 -36.749 -6.433 107 104 97
-11.516 -36.956 -6.414 108 103 97
-11.530 -37.163 -6.398 109 104 98
-11.550 -37.369 -6.380 106 101 95
-11.575 -37.573 -6.363 106 101 95
-11.605 -37.777 -6.345 108 103 97
-11.640 -37.979 -6.328 109 104 98
-11.680 -38.180 -6.310 111 106 100
-11.724 -38.380 -6.294 109 104 98
-11.773 -38.578 -6.277 115 110 104
-11.826 -38.775 -6.261 114 109 103
-11.883 -38.969 -6.245 111 106 100
-11.945 -39.163 -6.229 112 107 101
-12.012 -39.354 -6.213 113 108 102
-12.083 -39.543 -6.198 114 110 99
-12.159 -39.729 -6.182 113 109 98
-12.238 -39.914 -6.167 113 109 100
-12.321 -40.097 -6.153 113 109 100
-12.409 -40.278 -6.139 115 111 100
-12.500 -40.456 -6.125 115 111 100
-12.597 -40.630 -6.110 116 112 101
-12.696 -40.803 -6.096 117 113 102
-12.800 -40.973 -6.082 116 112 101
-12.909 -41.139 -6.067 119 115 104
-13.022 -41.302 -6.052 117 113 102
-13.139 -41.462 -6.035 117 113 102
-13.259 -41.619 -6.021 116 112 101
-13.383 -41.772 -6.005 117 113 102
-13.509 -41.923 -5.991 118 114 103
-13.639 -42.071 -5.977 117 113 102
-13.773 -42.214 -5.962 118 111 101
-13.912 -42.352 -5.945 118 111 101
-14.054 -42.486 -5.927 119 112 102
-14.199 -42.617 -5.910 121 112 103
-14.348 -42.743 -5.891 122 114 103
-14.499 -42.865 -5.873 125 117 106
-14.650 -42.986 -5.859 125 117 106
-14.803 -43.104 -5.846 124 116 103
-14.959 -43.218 -5.833 127 118 103
-15.113 -43.333 -5.827 130 121 106
-15.265 -43.450 -5.828 134 125 110
-15.418 -43.567 -5.832 131 122 107
-15.570 -43.685 -5.844 117 106 88
-15.724 -43.802 -5.858 169 158 140
-15.877 -43.921 -5.879 190 179 161
-16.031 -44.041 -5.906 212 201 183
-16.186 -44.163 -5.938 158 151 135
-16.343 -44.286 -5.974 104 96 83
-16.502 -44.407 -6.013 103 95 82
-16.667 -44.520 -6.047 132 122 110
-16.833 -44.635 -6.088 172 162 150
-17.003 -44.747 -6.129 150 144 132
-17.175 -44.858 -6.173 143 140 133
-17.351 -44.964 -6.216 84 83 79
-17.530 -45.068 -6.261 103 104 99
-17.712 -45.169 -6.307 62 61 56
-17.899 -45.261 -6.349 88 87 82
-18.091 -45.344 -6.385 73 73 65
-18.287 -45.412 -6.411 74 71 62
-18.487 -45.466 -6.427 106 99 89
-18.690 -45.508 -6.436 158 150 137
-18.895 -45.538 -6.439 138 129 112
-19.101 -45.557 -6.435 130 118 102
-19.308 -45.569 -6.429 123 111 95
-19.515 -45.572 -6.419 145 133 117
-19.722 -45.562 -6.401 161 149 133
-19.928 -45.532 -6.369 175 160 141
-20.133 -45.496 -6.336 166 151 132
-20.335 -45.454 -6.302 175 158 140
-20.536 -45.405 -6.265 159 142 124
-20.735 -45.360 -6.236 145 126 109
-20.934 -45.317 -6.216 152 131 114
-21.132 -45.277 -6.203 148 125 109
-21.328 -45.231 -6.188 145 122 106
-21.523 -45.183 -6.177 144 121 107
-21.717 -45.129 -6.165 144 120 108
-21.909 -45.071 -6.152 151 127 115
-22.099 -45.008 -6.140 147 123 111
-22.286 -44.937 -6.124 150 128 114
-22.471 -44.861 -6.107 148 129 114
-22.653 -44.780 -6.090 149 127 114
-22.833 -44.695 -6.073 151 129 118
-23.010 -44.604 -6.054 152 125 114
-23.184 -44.508 -6.035 145 122 108
-23.355 -44.410 -6.016 142 119 105
-23.524 -44.307 -5.998 146 123 109
-23.689 -44.200 -5.979 150 124 111
-23.852 -44.089 -5.960 143 117 104
-24.011 -43.975 -5.942 144 118 105
-24.167 -43.856 -5.923 153 127 114
-24.319 -43.734 -5.903 149 123 110
-24.468 -43.609 -5.884 145 119 106
-24.614 -43.481 -5.867 161 135 122
-24.758 -43.352 -5.850 145 119 106
-24.899 -43.220 -5.835 147 121 108
-25.035 -43.083 -5.819 149 123 110
-25.167 -42.944 -5.802 146 120 107
-25.297 -42.802 -5.786 148 122 109
-25.422 -42.657 -5.770 148 122 109
-25.545 -42.510 -5.755 145 119 106
-25.663 -42.361 -5.740 150 124 111
-25.778 -42.209 -5.726 147 121 108
-25.890 -42.056 -5.712 150 124 111
-25.997 -41.899 -5.698 146 120 107
-26.099 -41.740 -5.683 140 114 101
-26.197 -41.578 -5.668 145 119 106
-26.289 -41.413 -5.651 148 122 109
-26.378 -41.248 -5.635 149 123 110
-26.464 -41.080 -5.620 149 123 110
-26.544 -40.911 -5.604 145 119 106
-26.619 -40.740 -5.587 150 124 111
-26.689 -40.566 -5.569 147 121 108
-26.754 -40.391 -5.551 151 125 112
-26.815 -40.216 -5.533 146 120 107
-26.871 -40.039 -5.515 144 117 106
-26.922 -39.861 -5.497 150 123 112
-26.967 -39.682 -5.476 144 117 106
-27.007 -39.502 -5.455 150 123 112
-27.042 -39.321 -5.435 146 120 107
-27.073 -39.140 -5.414 142 116 103
-27.099 -38.959 -5.393 145 119 106
-27.120 -38.778 -5.371 146 120 107
-27.136 -38.597 -5.350 145 119 106
-27.150 -38.416 -5.330 144 118 105
-27.161 -38.236 -5.312 142 116 103
-27.168 -38.056 -5.294 142 116 103
-27.170 -37.876 -5.277 138 112 99
-27.168 -37.697 -5.260 145 119 106
-27.162 -37.518 -5.242 140 114 101
-27.152 -37.340 -5.226 143 117 104
-27.138 -37.163 -5.211 143 117 104
-27.123 -36.986 -5.197 144 118 105
-27.102 -36.810 -5.183 143 117 104
-27.077 -36.636 -5.168 140 114 101
-27.049 -36.462 -5.155 143 117 104
-27.016 -36.289 -5.142 143 117 104
-26.978 -36.117 -5.128 140 114 101
-26.937 -35.947 -5.114 142 116 103
-26.892 -35.778 -5.100 141 114 103
-26.842 -35.610 -5.086 138 111 100
-26.789 -35.444 -5.073 138 111 100
-26.733 -35.280 -5.061 139 112 101
-26.670 -35.118 -5.045 139 112 101
-26.602 -34.958 -5.029 139 112 101
-26.531 -34.800 -5.013 137 110 99
-26.456 -34.645 -4.997 138 111 100
-26.378 -34.491 -4.982 137 111 98
-26.296 -34.340 -4.966 137 111 98
-26.210 -34.192 -4.949 137 111 98
-26.121 -34.046 -4.933 137 111 98
-26.030 -33.901 -4.919 138 112 99
-25.937 -33.759 -4.906 139 113 100
-25.841 -33.619 -4.893 138 112 99
-25.741 -33.482 -4.880 138 112 99
-25.636 -33.349 -4.865 140 114 101
-25.530 -33.218 -4.852 137 111 98
-25.420 -33.090 -4.837 137 111 98
-25.307 -32.965 -4.823 137 111 98
-25.191 -32.843 -4.809 138 112 99
-25.073 -32.725 -4.795 136 110 97
-24.952 -32.610 -4.780 135 109 96
-24.828 -32.498 -4.765 135 109 96
-24.701 -32.390 -4.750 134 107 96
-24.572 -32.286 -4.734 133 106 95
-24.441 -32.184 -4.720 134 107 96
-24.306 -32.087 -4.703 134 107 96
-24.170 -31.994 -4.686 136 109 98
-24.030 -31.906 -4.668 132 104 93
-23.889 -31.822 -4.650 153 125 114
-23.746 -31.742 -4.630 131 103 92
-23.601 -31.666 -4.611 132 105 94
-23.456 -31.591 -4.595 134 107 96
-23.311 -31.519 -4.580 135 111 99
-23.164 -31.450 -4.565 133 111 98
-23.017 -31.383 -4.553 133 109 97
-22.869 -31.320 -4.542 132 108 98
-22.721 -31.258 -4.532 129 107 94
-22.572 -31.198 -4.524 125 106 92
-22.421 -31.144 -4.515 124 105 91
-22.269 -31.094 -4.505 122 103 89
-22.116 -31.046 -4.496 119 100 86
-21.963 -31.002 -4.488 116 97 83
-21.808 -30.967 -4.475 113 95 83
-21.652 -30.932 -4.465 109 91 79
-21.496 -30.902 -4.455 110 92 80
-21.340 -30.874 -4.446 109 91 79
-21.183 -30.854 -4.433 106 88 76
-21.026 -30.838 -4.420 111 93 81
-20.868 -30.827 -4.406 112 94 80
-20.710 -30.823 -4.388 115 97 83
-20.552 -30.827 -4.366 115 97 83
-20.395 -30.827 -4.354 114 95 81
-20.239 -30.827 -4.344 113 94 80
-20.083 -30.832 -4.333 115 93 80
-19.928 -27.684 -7.794 71 74 67
-19.696 -27.700 -7.781 79 82 75
-19.465 -27.731 -7.757 78 81 74
-19.235 -27.764 -7.738 80 83 76
-19.005 -27.796 -7.725 80 81 73
-18.778 -27.839 -7.707 81 82 74
-18.552 -27.885 -7.692 79 80 72
-18.327 -27.936 -7.676 79 80 72
-18.104 -27.994 -7.660 75 76 70
-17.882 -28.052 -7.648 75 76 70
-17.662 -28.117 -7.635 80 81 75
-17.444 -28.188 -7.622 82 83 77
-17.229 -28.265 -7.608 79 80 74
-17.016 -28.347 -7.594 80 81 75
-16.804 -28.433 -7.580 83 84 78
-16.596 -28.524 -7.568 81 82 76
-16.390 -28.621 -7.553 82 83 78
-16.187 -28.723 -7.540 81 82 77
-15.986 -28.829 -7.525 80 81 76
-15.790 -28.941 -7.511 80 81 76
-15.596 -29.058 -7.496 81 82 77
-15.405 -29.179 -7.482 81 82 77
-15.218 -29.305 -7.466 83 84 79
-15.034 -29.434 -7.453 79 80 75
-14.852 -29.567 -7.440 80 81 75
-14.676 -29.705 -7.425 79 80 74
-14.501 -29.846 -7.413 82 83 77
-14.332 -29.992 -7.398 82 83 77
-14.166 -30.142 -7.385 86 87 81
-14.003 -30.295 -7.372 83 84 78
-13.846 -30.452 -7.358 82 83 77
-13.692 -30.613 -7.345 83 84 78
-13.543 -30.778 -7.330 83 84 79
-13.398 -30.946 -7.316 82 83 78
-13.258 -31.118 -7.302 82 83 78
-13.122 -31.292 -7.287 85 86 81
-12.991 -31.470 -7.273 87 88 82
-12.864 -31.650 -7.259 87 88 82
-12.743 -31.834 -7.243 87 88 82
-12.627 -32.021 -7.228 88 89 83
-12.516 -32.210 -7.211 86 87 81
-12.409 -32.402 -7.196 90 91 85
-12.308 -32.595 -7.180 88 89 83
-12.212 -32.792 -7.164 90 91 85
-12.120 -32.990 -7.148 91 92 84
-12.034 -33.189 -7.132 90 91 83
-11.951 -33.390 -7.117 94 95 87
-11.874 -33.593 -7.103 94 95 87
-11.802 -33.797 -7.088 94 94 86
-11.737 -34.003 -7.072 94 94 86
-11.676 -34.210 -7.056 97 97 89
-11.619 -34.418 -7.042 99 99 91
-11.569 -34.627 -7.026 96 96 88
-11.523 -34.837 -7.011 96 96 88
-11.484 -35.048 -6.994 100 100 92
-11.450 -35.259 -6.978 100 100 92
-11.420 -35.471 -6.963 104 101 94
-11.396 -35.682 -6.948 99 96 89
-11.379 -35.895 -6.930 102 99 92
-11.367 -36.107 -6.913 105 102 95
-11.360 -36.319 -6.896 101 101 93
-11.360 -36.531 -6.877 104 104 96
-11.364 -36.742 -6.860 108 105 98
-11.373 -36.953 -6.842 109 104 98
-11.387 -37.163 -6.825 109 104 98
-11.407 -37.372 -6.807 108 103 97
-11.431 -37.580 -6.790 109 104 98
-11.460 -37.788 -6.773 109 104 98
-11.495 -37.994 -6.756 107 102 96
-11.534 -38.198 -6.739 108 103 97
-11.579 -38.401 -6.722 110 105 99
-11.628 -38.603 -6.705 110 105 99
-11.680 -38.804 -6.689 108 103 97
-11.737 -39.002 -6.674 112 107 101
-11.800 -39.199 -6.658 111 106 100
-11.869 -39.393 -6.640 112 107 101
-11.941 -39.586 -6.624 113 109 98
-12.018 -39.776 -6.607 112 108 97
-12.098 -39.965 -6.593 112 108 99
-12.187 -40.149 -6.573 112 107 101
-12.277 -40.332 -6.557 113 109 100
-12.369 -40.514 -6.543 113 109 100
-12.470 -40.690 -6.524 114 110 101
-12.571 -40.866 -6.511 115 111 102
-12.680 -41.037 -6.491 114 110 99
-12.790 -41.206 -6.477 117 113 102
-12.905 -41.372 -6.460 118 114 103
-13.023 -41.536 -6.445 118 114 103
-13.143 -41.696 -6.431 118 114 103
-13.269 -41.853 -6.416 119 115 104
-13.398 -42.006 -6.400 118 114 103
-13.530 -42.156 -6.385 117 113 102
-13.666 -42.302 -6.370 119 112 102
-13.804 -42.445 -6.356 119 112 102
-13.947 -42.584 -6.340 118 111 101
-14.094 -42.717 -6.323 119 112 102
-14.245 -42.846 -6.305 118 112 100
-14.398 -42.972 -6.287 121 115 103
-14.556 -43.090 -6.266 125 119 107
-14.714 -43.207 -6.248 119 113 101
-14.877 -43.317 -6.226 125 117 104
-15.042 -43.424 -6.206 127 119 106
-15.205 -43.531 -6.192 127 119 106
-15.369 -43.636 -6.180 121 113 100
-15.536 -43.736 -6.169 134 122 108
-15.703 -43.836 -6.161 129 117 103
-15.870 -43.933 -6.155 142 130 116
-16.039 -44.029 -6.153 142 130 116
-16.207 -44.125 -6.156 126 115 95
-16.375 -44.221 -6.164 111 100 78
-16.544 -44.317 -6.177 148 137 115
-16.713 -44.417 -6.199 189 178 156
-16.879 -44.523 -6.232 197 186 168
-17.046 -44.635 -6.275 145 133 119
-17.213 -44.750 -6.326 62 54 43
-17.386 -44.859 -6.374 74 70 59
-17.564 -44.955 -6.413 84 83 78
-17.747 -45.043 -6.448 83 82 77
-17.931 -45.135 -6.491 76 75 70
-18.118 -45.224 -6.536 81 80 75
-18.308 -45.308 -6.581 96 95 91
-18.501 -45.386 -6.623 127 126 121
-18.698 -45.457 -6.664 90 87 78
-18.897 -45.520 -6.701 87 83 71
-19.100 -45.572 -6.731 122 116 104
-19.304 -45.616 -6.758 95 88 78
-19.511 -45.649 -6.779 107 100 90
-19.719 -45.670 -6.793 114 107 97
-19.928 -45.683 -6.803 143 137 123
-20.137 -45.682 -6.805 127 120 104
-20.346 -45.664 -6.794 129 120 105
-20.553 -45.633 -6.775 142 130 116
-20.758 -45.586 -6.745 164 153 135
-20.959 -45.523 -6.704 174 161 144
-21.159 -45.460 -6.666 173 157 141
-21.356 -45.394 -6.632 173 156 140
-21.554 -45.336 -6.611 156 137 120
-21.750 -45.278 -6.594 154 135 118
-21.945 -45.215 -6.577 148 129 112
-22.138 -45.148 -6.561 148 129 112
-22.328 -45.076 -6.544 148 131 113
-22.516 -44.997 -6.525 148 129 112
-22.702 -44.915 -6.507 149 128 111
-22.885 -44.829 -6.490 150 127 113
-23.065 -44.737 -6.471 151 125 112
-23.243 -44.642 -6.453 142 116 103
-23.419 -44.544 -6.437 147 121 108
-23.591 -44.441 -6.419 141 115 102
-23.761 -44.333 -6.401 144 118 105
-23.926 -44.221 -6.382 152 126 113
-24.089 -44.105 -6.363 146 120 107
-24.249 -43.986 -6.345 149 123 110
-24.405 -43.863 -6.326 152 126 113
-24.558 -43.736 -6.308 146 120 107
-24.707 -43.607 -6.290 135 109 96
-24.854 -43.475 -6.274 155 129 116
-24.999 -43.342 -6.260 144 118 105
-25.139 -43.204 -6.243 143 117 104
-25.275 -43.062 -6.227 150 124 111
-25.407 -42.918 -6.210 148 122 109
-25.536 -42.771 -6.194 148 122 109
-25.660 -42.621 -6.178 145 119 106
-25.781 -42.468 -6.162 149 123 110
-25.898 -42.312 -6.146 146 120 107
-26.011 -42.155 -6.131 141 115 102
-26.120 -41.995 -6.116 144 118 105
-26.225 -41.833 -6.101 150 124 111
-26.326 -41.669 -6.086 147 121 108
-26.421 -41.502 -6.069 150 124 111
-26.513 -41.333 -6.054 144 118 105
-26.601 -41.163 -6.039 144 118 105
-26.684 -40.990 -6.023 146 120 107
-26.762 -40.816 -6.007 147 121 108
-26.834 -40.639 -5.988 146 120 107
-26.901 -40.461 -5.970 146 120 107
-26.963 -40.282 -5.952 148 122 109
-27.022 -40.101 -5.934 149 122 111
-27.075 -39.920 -5.915 143 116 105
-27.122 -39.737 -5.895 140 113 102
-27.163 -39.553 -5.873 147 120 109
-27.201 -39.369 -5.853 148 122 109
-27.233 -39.184 -5.831 149 123 110
-27.260 -39.000 -5.810 142 116 103
-27.284 -38.815 -5.790 142 116 103
-27.302 -38.630 -5.768 143 117 104
-27.317 -38.445 -5.749 143 117 104
-27.329 -38.261 -5.731 148 122 109
-27.338 -38.077 -5.714 143 117 104
-27.342 -37.893 -5.698 142 116 103
-27.341 -37.710 -5.681 143 117 104
-27.336 -37.527 -5.663 144 118 105
-27.326 -37.345 -5.646 138 112 99
-27.312 -37.163 -5.630 142 116 103
-27.296 -36.982 -5.615 143 117 104
-27.275 -36.802 -5.600 144 118 105
-27.248 -36.623 -5.585 141 115 102
-27.219 -36.445 -5.570 139 113 100
-27.185 -36.268 -5.555 142 116 103
-27.146 -36.092 -5.540 146 120 107
-27.104 -35.918 -5.526 140 114 101
-27.058 -35.745 -5.511 144 117 106
-27.007 -35.573 -5.497 139 112 101
-26.953 -35.403 -5.483 138 111 100
-26.896 -35.235 -5.470 139 112 101
-26.832 -35.069 -5.455 137 110 99
-26.764 -34.905 -5.439 139 112 101
-26.691 -34.743 -5.422 139 112 101
-26.616 -34.583 -5.406 140 113 102
-26.537 -34.425 -5.392 138 112 99
-26.454 -34.270 -5.376 138 112 99
-26.368 -34.117 -5.361 139 113 100
-26.278 -33.966 -5.346 139 113 100
-26.186 -33.818 -5.331 138 112 99
-26.090 -33.672 -5.318 136 110 97
-25.992 -33.528 -5.305 137 111 98
-25.889 -33.388 -5.291 137 111 98
-25.783 -33.251 -5.276 137 111 98
-25.673 -33.117 -5.261 140 114 101
-25.561 -32.985 -5.247 136 110 97
-25.446 -32.857 -5.232 139 113 100
-25.327 -32.732 -5.217 137 111 98
-25.206 -32.610 -5.202 138 112 99
-25.082 -32.491 -5.188 137 111 98
-24.956 -32.375 -5.174 136 110 97
-24.827 -32.264 -5.159 135 108 97
-24.695 -32.156 -5.144 134 107 96
-24.561 -32.052 -5.128 134 107 96
-24.424 -31.951 -5.112 134 107 96
-24.285 -31.854 -5.096 132 105 94
-24.143 -31.762 -5.079 131 104 93
-24.000 -31.672 -5.063 138 111 100
-23.854 -31.589 -5.045 132 105 94
-23.705 -31.510 -5.026 133 106 95
-23.557 -31.433 -5.008 134 107 96
-23.407 -31.359 -4.992 133 109 97
-23.257 -31.286 -4.979 134 112 99
-23.106 -31.218 -4.965 135 111 99
-22.953 -31.153 -4.953 132 108 96
-22.801 -31.089 -4.942 129 107 94
-22.647 -31.028 -4.934 125 106 92
-22.493 -30.971 -4.925 126 104 91
-22.337 -30.919 -4.915 124 102 89
-22.179 -30.872 -4.903 121 99 86
-22.020 -30.830 -4.892 120 98 85
-21.860 -30.793 -4.878 117 98 84
-21.701 -30.757 -4.868 117 98 84
-21.540 -30.726 -4.856 116 97 83
-21.379 -30.700 -4.844 115 96 82
-21.218 -30.679 -4.831 116 98 84
-21.057 -30.659 -4.821 112 94 80
-20.895 -30.645 -4.809 112 94 80
-20.733 -30.639 -4.792 114 96 82
-20.571 -30.639 -4.774 118 99 85
-20.409 -30.636 -4.763 118 99 85
-20.248 -30.643 -4.745 114 95 81
-20.088 -30.652 -4.730 114 95 81
-19.928 -27.592 -8.219 84 84 76
-19.693 -27.603 -8.211 85 85 77
-19.460 -27.633 -8.187 84 84 76
-19.227 -27.666 -8.168 85 85 77
-18.996 -27.697 -8.156 85 86 78
-18.766 -27.739 -8.138 86 87 79
-18.537 -27.784 -8.123 83 84 76
-18.310 -27.835 -8.108 82 83 75
-18.083 -27.890 -8.095 82 83 77
-17.859 -27.947 -8.084 80 81 75
-17.636 -28.012 -8.072 82 83 77
-17.415 -28.083 -8.058 82 83 77
-17.197 -28.160 -8.044 82 83 77
-16.981 -28.242 -8.031 79 80 74
-16.767 -28.330 -8.017 81 82 76
-16.556 -28.421 -8.004 80 81 75
-16.347 -28.518 -7.990 83 84 78
-16.143 -28.624 -7.973 83 84 78
-15.940 -28.732 -7.958 83 84 78
-15.741 -28.845 -7.942 83 84 78
-15.545 -28.963 -7.927 82 83 78
-15.353 -29.086 -7.911 82 83 78
-15.163 -29.213 -7.896 82 83 78
-14.976 -29.344 -7.882 83 84 79
-14.794 -29.479 -7.867 82 83 77
-14.614 -29.618 -7.853 82 83 77
-14.438 -29.761 -7.839 83 84 78
-14.267 -29.909 -7.824 83 84 78
-14.098 -30.060 -7.811 84 85 79
-13.934 -30.214 -7.799 84 85 79
-13.772 -30.371 -7.786 84 85 79
-13.616 -30.533 -7.773 84 85 79
-13.464 -30.699 -7.760 84 85 80
-13.317 -30.868 -7.747 81 82 77
-13.174 -31.042 -7.732 83 84 79
-13.036 -31.218 -7.717 84 85 80
-12.903 -31.397 -7.703 84 85 79
-12.774 -31.580 -7.689 87 88 82
-12.649 -31.765 -7.675 87 88 82
-12.531 -31.953 -7.660 88 89 83
-12.418 -32.145 -7.644 89 90 85
-12.309 -32.338 -7.629 88 89 84
-12.208 -32.536 -7.610 87 88 83
-12.109 -32.733 -7.595 88 89 84
-12.015 -32.933 -7.580 91 92 84
-11.926 -33.135 -7.565 91 92 84
-11.843 -33.339 -7.550 93 94 86
-11.764 -33.544 -7.535 93 94 86
-11.692 -33.751 -7.518 92 92 84
-11.625 -33.960 -7.502 95 95 87
-11.563 -34.170 -7.485 96 96 88
-11.507 -34.381 -7.469 92 92 84
-11.456 -34.593 -7.452 93 93 85
-11.410 -34.806 -7.436 98 98 90
-11.370 -35.019 -7.420 98 98 90
-11.335 -35.233 -7.403 101 101 93
-11.304 -35.447 -7.388 101 98 91
-11.278 -35.662 -7.373 103 100 93
-11.261 -35.877 -7.355 101 98 91
-11.247 -36.092 -7.339 103 100 93
-11.240 -36.307 -7.321 101 101 93
-11.237 -36.522 -7.304 100 100 92
-11.241 -36.736 -7.287 104 101 94
-11.249 -36.950 -7.269 106 101 95
-11.263 -37.163 -7.251 106 101 95
-11.282 -37.375 -7.234 111 106 100
-11.305 -37.587 -7.217 111 106 100
-11.334 -37.797 -7.200 107 102 96
-11.369 -38.006 -7.183 109 104 98
-11.408 -38.214 -7.166 110 105 99
-11.451 -38.420 -7.149 109 104 98
-11.499 -38.625 -7.134 110 105 99
-11.553 -38.829 -7.117 112 107 101
-11.611 -39.031 -7.101 111 106 100
-11.674 -39.230 -7.085 108 103 97
-11.743 -39.428 -7.067 109 104 98
-11.817 -39.623 -7.050 113 109 100
-11.895 -39.817 -7.032 113 109 100
-11.978 -40.007 -7.015 112 107 101
-12.067 -40.195 -6.996 113 108 104
-12.159 -40.381 -6.978 113 108 102
-12.255 -40.564 -6.961 112 107 101
-12.355 -40.745 -6.945 114 109 103
-12.459 -40.923 -6.928 112 107 101
-12.568 -41.097 -6.910 112 108 99
-12.681 -41.268 -6.892 112 108 99
-12.798 -41.437 -6.876 111 107 98
-12.917 -41.603 -6.861 113 109 100
-13.039 -41.766 -6.846 114 110 101
-13.166 -41.926 -6.831 117 113 104
-13.297 -42.081 -6.815 115 111 102
-13.431 -42.233 -6.800 115 111 102
-13.567 -42.383 -6.786 118 111 103
-13.707 -42.529 -6.772 118 111 103
-13.851 -42.671 -6.757 121 114 106
-13.999 -42.807 -6.740 122 115 107
-14.151 -42.940 -6.723 121 117 106
-14.307 -43.067 -6.704 119 115 104
-14.465 -43.190 -6.685 119 115 104
-14.627 -43.308 -6.665 119 115 104
-14.793 -43.420 -6.643 120 114 102
-14.960 -43.529 -6.622 120 114 102
-15.128 -43.635 -6.604 122 116 104
-15.298 -43.738 -6.586 118 112 100
-15.468 -43.837 -6.570 121 112 103
-15.640 -43.934 -6.557 123 114 105
-15.814 -44.026 -6.543 120 111 102
-15.990 -44.115 -6.531 125 116 107
-16.167 -44.199 -6.518 132 120 108
-16.345 -44.281 -6.508 122 110 96
-16.524 -44.360 -6.500 129 117 103
-16.703 -44.439 -6.498 137 125 111
-16.882 -44.516 -6.497 133 120 103
-17.064 -44.588 -6.497 136 123 107
-17.244 -44.663 -6.505 130 118 102
-17.425 -44.739 -6.519 103 94 79
-17.606 -44.818 -6.541 81 74 64
-17.786 -44.904 -6.576 81 77 68
-17.967 -44.993 -6.619 85 81 72
-18.150 -45.083 -6.666 70 66 57
-18.336 -45.166 -6.712 84 83 79
-18.525 -45.251 -6.765 79 78 74
-18.717 -45.327 -6.812 91 90 85
-18.912 -45.401 -6.862 79 78 73
-19.110 -45.466 -6.908 84 83 78
-19.311 -45.522 -6.949 95 94 90
-19.515 -45.569 -6.986 89 88 84
-19.721 -45.614 -7.026 83 82 78
-19.928 -45.654 -7.066 90 91 83
-20.137 -45.682 -7.099 59 58 53
-20.347 -45.697 -7.122 57 56 52
-20.558 -45.703 -7.143 135 133 121
-20.768 -45.696 -7.154 171 168 151
-20.978 -45.679 -7.162 192 186 170
-21.188 -45.655 -7.166 206 199 183
-21.395 -45.618 -7.162 196 187 172
-21.598 -45.559 -7.140 179 168 150
-21.796 -45.480 -7.102 144 131 114
-21.991 -45.400 -7.066 168 155 138
-22.184 -45.315 -7.031 167 154 137
-22.375 -45.230 -7.000 159 146 127
-22.565 -45.145 -6.975 148 133 114
-22.753 -45.058 -6.953 135 118 100
-22.938 -44.967 -6.931 144 125 108
-23.121 -44.871 -6.908 145 123 109
-23.302 -44.775 -6.890 140 117 103
-23.481 -44.675 -6.873 145 119 106
-23.657 -44.570 -6.854 149 121 109
-23.829 -44.461 -6.835 146 120 107
-23.998 -44.347 -6.816 143 117 104
-24.163 -44.229 -6.796 159 133 120
-24.326 -44.108 -6.776 145 119 106
-24.485 -43.982 -6.757 142 116 103
-24.641 -43.855 -6.739 147 121 108
-24.794 -43.724 -6.722 144 118 105
-24.945 -43.591 -6.706 144 118 105
-25.092 -43.455 -6.691 155 129 116
-25.235 -43.315 -6.675 143 117 104
-25.374 -43.171 -6.658 145 119 106
-25.509 -43.024 -6.641 156 130 117
-25.639 -42.874 -6.624 148 122 109
-25.767 -42.722 -6.607 145 119 106
-25.890 -42.566 -6.591 149 123 110
-26.009 -42.409 -6.575 147 121 108
-26.125 -42.249 -6.560 134 108 95
-26.237 -42.087 -6.545 144 118 105
-26.344 -41.922 -6.529 143 117 104
-26.447 -41.754 -6.513 143 117 104
-26.545 -41.584 -6.497 144 118 105
-26.639 -41.412 -6.481 149 123 110
-26.728 -41.238 -6.464 143 117 104
-26.812 -41.063 -6.448 146 120 107
-26.892 -40.885 -6.431 141 115 102
-26.966 -40.705 -6.412 145 119 106
-27.035 -40.524 -6.394 143 117 104
-27.100 -40.342 -6.376 147 121 108
-27.160 -40.158 -6.358 142 115 104
-27.215 -39.974 -6.339 142 115 104
-27.264 -39.788 -6.318 145 118 107
-27.307 -39.601 -6.297 145 118 107
-27.346 -39.413 -6.277 143 117 104
-27.380 -39.225 -6.256 146 120 107
-27.410 -39.037 -6.235 143 117 104
-27.434 -38.849 -6.214 153 127 114
-27.454 -38.660 -6.193 142 116 103
-27.470 -38.472 -6.173 141 115 102
-27.483 -38.284 -6.155 136 110 97
-27.492 -38.096 -6.137 140 114 101
-27.496 -37.908 -6.120 154 128 115
-27.496 -37.721 -6.102 137 111 98
-27.491 -37.534 -6.085 138 112 99
-27.482 -37.348 -6.068 139 113 100
-27.468 -37.163 -6.050 142 116 103
-27.452 -36.978 -6.035 147 121 108
-27.430 -36.794 -6.020 141 115 102
-27.404 -36.611 -6.003 140 114 101
-27.373 -36.430 -5.988 138 112 99
-27.338 -36.249 -5.972 140 114 101
-27.299 -36.069 -5.956 144 118 105
-27.256 -35.891 -5.941 142 116 103
-27.209 -35.715 -5.926 135 108 97
-27.158 -35.539 -5.912 138 111 100
-27.103 -35.366 -5.898 139 112 101
-27.045 -35.193 -5.884 140 113 102
-26.980 -35.024 -5.868 140 113 102
-26.911 -34.856 -5.852 142 115 104
-26.837 -34.691 -5.835 139 112 101
-26.761 -34.527 -5.820 139 112 101
-26.682 -34.365 -5.806 136 110 97
-26.599 -34.206 -5.791 139 113 100
-26.512 -34.049 -5.776 134 108 95
-26.421 -33.895 -5.761 138 112 99
-26.327 -33.742 -5.747 138 112 99
-26.231 -33.592 -5.734 136 110 97
-26.131 -33.445 -5.722 137 111 98
-26.028 -33.300 -5.709 135 109 96
-25.921 -33.159 -5.695 139 113 100
-25.810 -33.020 -5.681 136 110 97
-25.696 -32.885 -5.667 133 107 94
-25.579 -32.753 -5.653 135 109 96
-25.458 -32.624 -5.638 139 113 100
-25.334 -32.499 -5.623 137 111 98
-25.208 -32.377 -5.608 137 111 98
-25.079 -32.259 -5.594 136 110 97
-24.947 -32.144 -5.578 135 108 97
-24.811 -32.034 -5.562 135 108 97
-24.673 -31.927 -5.544 135 108 97
-24.533 -31.825 -5.527 133 106 95
-24.391 -31.725 -5.511 132 105 94
-24.247 -31.629 -5.495 133 106 95
-24.100 -31.537 -5.478 130 103 92
-23.951 -31.450 -5.460 133 106 95
-23.800 -31.368 -5.442 132 105 94
-23.649 -31.287 -5.426 135 108 97
-23.497 -31.209 -5.411 133 109 97
-23.344 -31.134 -5.399 132 110 97
-23.189 -31.062 -5.386 135 108 97
-23.032 -30.995 -5.372 134 107 96
-22.876 -30.930 -5.361 130 106 94
-22.718 -30.868 -5.352 127 105 92
-22.559 -30.810 -5.342 125 101 89
-22.399 -30.757 -5.331 124 100 88
-22.237 -30.710 -5.318 123 99 87
-22.074 -30.666 -5.305 121 97 85
-21.910 -30.628 -5.292 117 95 82
-21.746 -30.592 -5.280 121 99 86
-21.582 -30.561 -5.266 116 94 81
-21.416 -30.537 -5.251 117 95 82
-21.250 -30.516 -5.236 115 96 82
-21.084 -30.499 -5.222 116 97 83
-20.918 -30.487 -5.206 115 96 82
-20.752 -30.480 -5.190 117 98 84
-20.586 -30.479 -5.170 118 96 83
-20.421 -30.478 -5.157 121 97 85
-20.256 -30.482 -5.142 113 94 80
-20.092 -30.492 -5.124 113 95 81
-19.928 -27.503 -8.658 83 85 74
-19.691 -27.513 -8.650 84 86 75
-19.455 -27.541 -8.629 84 86 75
-19.220 -27.571 -8.612 85 87 76
-18.986 -27.602 -8.600 86 87 79
-18.754 -27.643 -8.583 84 85 77
-18.523 -27.688 -8.568 80 81 73
-18.292 -27.737 -8.555 87 88 80
-18.064 -27.790 -8.544 82 83 77
-17.836 -27.847 -8.534 86 87 81
-17.611 -27.912 -8.523 84 85 79
-17.387 -27.982 -8.510 83 84 78
-17.166 -28.059 -8.497 83 84 78
-16.947 -28.140 -8.484 77 78 72
-16.731 -28.228 -8.470 84 85 79
-16.517 -28.319 -8.458 83 84 78
-16.305 -28.417 -8.445 85 86 78
-16.097 -28.520 -8.431 85 86 78
-15.892 -28.629 -8.416 83 84 76
-15.690 -28.743 -8.400 83 84 76
-15.491 -28.863 -8.384 81 82 77
-15.296 -28.987 -8.368 81 82 77
-15.104 -29.115 -8.353 82 83 78
-14.914 -29.246 -8.339 83 84 79
-14.729 -29.382 -8.325 82 83 77
-14.547 -29.523 -8.310 82 83 77
-14.369 -29.668 -8.295 83 84 78
-14.196 -29.818 -8.280 83 84 78
-14.025 -29.970 -8.267 82 83 77
-13.857 -30.126 -8.254 82 83 77
-13.695 -30.286 -8.241 84 85 79
-13.536 -30.449 -8.228 84 85 79
-13.382 -30.617 -8.214 83 84 79
-13.232 -30.788 -8.201 83 84 79
-13.086 -30.962 -8.188 83 84 79
-12.946 -31.141 -8.173 84 85 80
-12.811 -31.322 -8.158 82 83 77
-12.681 -31.507 -8.143 83 84 78
-12.555 -31.695 -8.127 84 85 79
-12.435 -31.886 -8.112 87 88 82
-12.320 -32.079 -8.096 86 87 82
-12.209 -32.275 -8.080 88 89 84
-12.104 -32.474 -8.064 88 89 84
-12.004 -32.674 -8.048 89 90 85
-11.909 -32.876 -8.033 89 90 84
-11.819 -33.081 -8.016 89 90 82
-11.735 -33.288 -7.999 89 90 82
-11.657 -33.497 -7.981 91 92 84
-11.585 -33.707 -7.963 95 95 87
-11.518 -33.919 -7.945 95 95 87
-11.457 -34.132 -7.927 98 98 90
-11.401 -34.346 -7.909 93 93 85
-11.350 -34.561 -7.890 94 94 86
-11.305 -34.777 -7.872 93 93 85
-11.264 -34.993 -7.854 97 97 89
-11.227 -35.209 -7.839 97 97 89
-11.196 -35.426 -7.823 99 99 91
-11.169 -35.643 -7.808 97 97 89
-11.150 -35.861 -7.792 98 98 90
-11.136 -36.079 -7.774 100 100 92
-11.127 -36.296 -7.757 100 100 92
-11.124 -36.514 -7.740 102 102 94
-11.127 -36.731 -7.722 101 98 91
-11.134 -36.947 -7.705 105 100 94
-11.147 -37.163 -7.688 108 103 97
-11.164 -37.378 -7.672 108 103 97
-11.188 -37.592 -7.655 107 102 96
-11.216 -37.806 -7.638 111 106 100
-11.250 -38.018 -7.621 108 103 97
-11.289 -38.228 -7.604 110 105 99
-11.332 -38.438 -7.588 110 105 99
-11.381 -38.646 -7.572 110 105 99
-11.434 -38.852 -7.555 112 107 101
-11.493 -39.057 -7.538 110 105 99
-11.557 -39.260 -7.521 113 108 102
-11.627 -39.460 -7.503 111 106 100
-11.700 -39.659 -7.486 112 108 99
-11.779 -39.855 -7.468 112 107 101
-11.863 -40.049 -7.451 111 106 102
-11.952 -40.240 -7.432 112 107 104
-12.046 -40.428 -7.413 112 107 103
-12.143 -40.614 -7.395 111 106 102
-12.244 -40.797 -7.378 112 107 103
-12.349 -40.978 -7.361 112 107 103
-12.459 -41.155 -7.344 113 108 102
-12.574 -41.329 -7.326 113 108 102
-12.690 -41.501 -7.310 111 106 100
-12.810 -41.670 -7.295 113 108 102
-12.934 -41.836 -7.281 112 107 101
-13.062 -41.998 -7.266 113 108 102
-13.195 -42.156 -7.249 115 110 104
-13.331 -42.312 -7.233 114 109 103
-13.469 -42.464 -7.219 117 110 104
-13.612 -42.611 -7.203 116 109 103
-13.758 -42.755 -7.187 118 111 105
-13.909 -42.894 -7.170 119 112 106
-14.063 -43.028 -7.152 117 113 104
-14.220 -43.159 -7.134 116 113 104
-14.380 -43.284 -7.115 118 115 106
-14.544 -43.405 -7.095 118 115 106
-14.710 -43.521 -7.074 119 115 104
