ply
format ascii 1.0
element vertex 1407
property float x
property float y
property float z
property uchar red
property uchar green
property uchar blue
end_header
-25.364 -45.270 -3.539 182 163 149
-25.519 -45.330 -3.524 174 155 141
-25.675 -45.385 -3.509 178 159 145
-25.833 -45.436 -3.493 172 153 139
-25.991 -45.483 -3.477 178 160 146
-26.151 -45.526 -3.461 168 150 136
-26.310 -45.565 -3.446 173 155 141
-26.470 -45.601 -3.431 167 149 135
-26.629 -45.634 -3.417 170 152 140
-26.790 -45.662 -3.403 168 150 138
-26.950 -45.685 -3.388 165 147 135
-27.111 -45.705 -3.373 166 148 136
-27.272 -45.720 -3.358 158 142 129
-27.433 -45.731 -3.342 161 145 132
-27.593 -45.737 -3.326 160 144 131
-27.753 -45.740 -3.311 158 142 129
-27.913 -45.738 -3.295 172 156 143
-28.072 -45.732 -3.279 164 148 135
-28.231 -45.720 -3.261 165 149 136
-28.389 -45.705 -3.244 164 148 135
-28.545 -45.686 -3.227 160 144 131
-28.701 -45.665 -3.211 165 149 136
-28.856 -45.639 -3.194 153 137 124
-29.010 -45.609 -3.178 158 142 129
-29.162 -45.576 -3.161 157 141 126
-29.313 -45.539 -3.144 160 144 129
-29.463 -45.500 -3.129 158 142 127
-29.611 -45.455 -3.113 168 152 137
-29.757 -45.407 -3.096 161 145 132
-29.902 -45.357 -3.080 158 142 129
-30.045 -45.304 -3.065 158 142 129
-30.187 -45.248 -3.050 151 135 122
-30.327 -45.191 -3.037 156 142 131
-30.466 -45.130 -3.024 150 136 125
-30.601 -45.063 -3.009 141 128 119
-30.734 -44.992 -2.992 138 125 116
-30.867 -44.922 -2.978 91 77 76
-30.997 -44.849 -2.966 93 82 80
-31.127 -44.776 -2.956 87 77 75
-31.256 -44.702 -2.947 74 66 63
-31.381 -44.621 -2.936 76 67 62
-31.502 -44.536 -2.923 67 60 54
-31.624 -44.454 -2.915 65 60 57
-31.755 -44.386 -2.923 58 54 55
-31.911 -44.354 -2.971 42 31 27
-32.095 -44.357 -3.059 37 23 20
-32.299 -44.379 -3.171 65 51 50
-32.523 -44.415 -3.306 66 45 40
-32.734 -44.421 -3.418 73 52 47
-32.969 -44.446 -3.558 51 31 22
-33.208 -44.461 -3.698 83 59 47
-33.405 -44.422 -3.784 80 53 44
-33.615 -44.386 -3.883 47 25 14
-33.886 -44.402 -4.052 94 74 63
-34.106 -44.357 -4.159 97 79 65
-34.304 -44.285 -4.242 94 78 55
-34.519 -44.219 -4.342 69 78 35
-34.687 -44.110 -4.394 52 46 12
-34.817 -43.969 -4.408 129 97 82
-34.934 -43.817 -4.413 64 47 27
-35.054 -43.666 -4.424 44 39 0
-35.163 -43.508 -4.428 132 125 81
-35.257 -43.340 -4.421 73 63 27
-35.350 -43.172 -4.418 92 88 61
-35.448 -43.007 -4.423 17 20 0
-35.534 -42.835 -4.420 103 104 64
-35.553 -42.632 -4.362 80 65 72
-35.626 -42.456 -4.356 96 84 62
-35.705 -42.283 -4.360 124 113 109
-35.777 -42.107 -4.361 145 134 130
-35.844 -41.929 -4.361 75 68 60
-35.914 -41.752 -4.369 69 77 54
-35.986 -41.574 -4.381 30 41 7
-36.047 -41.393 -4.388 59 68 41
-36.127 -41.216 -4.414 54 64 39
-36.233 -41.044 -4.466 45 64 19
-36.275 -40.855 -4.467 63 78 39
-36.300 -40.663 -4.459 65 79 46
-36.336 -40.473 -4.463 19 34 3
-36.379 -40.284 -4.478 72 90 52
-36.392 -40.090 -4.471 68 83 40
-36.359 -39.894 -4.430 66 75 44
-36.338 -39.700 -4.403 70 72 61
-36.337 -39.509 -4.396 57 63 63
-36.346 -39.317 -4.402 22 31 10
-36.331 -39.126 -4.391 90 105 82
-36.288 -38.937 -4.362 76 69 63
-36.258 -38.748 -4.347 96 76 77
-36.229 -38.561 -4.336 63 55 53
-36.182 -38.375 -4.315 105 102 95
-36.128 -38.192 -4.291 8 7 13
-36.091 -38.008 -4.285 23 26 35
-36.050 -37.825 -4.279 4 3 9
-36.021 -37.639 -4.288 22 20 25
-36.004 -37.449 -4.310 31 22 23
-35.961 -37.265 -4.315 123 112 108
-35.909 -37.084 -4.315 78 61 51
-35.861 -36.901 -4.323 52 48 23
-35.805 -36.720 -4.328 40 30 5
-35.726 -36.548 -4.316 46 33 25
-35.651 -36.374 -4.312 72 63 58
-35.588 -36.195 -4.322 137 125 101
-35.495 -36.030 -4.309 115 103 81
-35.374 -35.880 -4.274 24 15 6
-35.291 -35.711 -4.278 33 29 2
-35.210 -35.542 -4.286 88 82 56
-35.103 -35.387 -4.274 26 19 1
-35.003 -35.228 -4.273 10 7 0
-34.918 -35.059 -4.290 96 98 84
-34.820 -34.898 -4.298 16 20 0
-34.702 -34.751 -4.290 82 87 57
-34.582 -34.607 -4.284 65 68 49
-34.452 -34.470 -4.271 26 29 22
-34.323 -34.334 -4.262 3 7 6
-34.201 -34.192 -4.264 13 17 18
-34.077 -34.051 -4.268 11 15 16
-33.948 -33.915 -4.270 16 19 12
-33.817 -33.780 -4.275 12 15 6
-33.690 -33.642 -4.286 21 24 17
-33.557 -33.508 -4.297 27 29 24
-33.432 -33.363 -4.321 29 28 24
-33.603 -32.837 -4.746 46 41 35
-33.471 -32.676 -4.786 150 146 135
-33.165 -32.758 -4.584 1 1 0
-32.998 -32.653 -4.577 19 21 10
-32.852 -32.516 -4.606 90 88 76
-32.697 -32.390 -4.628 51 45 31
-32.540 -32.267 -4.650 39 27 11
-32.384 -32.135 -4.683 92 84 61
-32.208 -32.041 -4.686 104 96 75
-32.041 -31.927 -4.709 84 75 58
-31.870 -31.818 -4.732 26 17 2
-31.622 -31.890 -4.598 70 65 45
-31.438 -31.819 -4.596 41 42 24
-31.269 -31.707 -4.634 26 28 14
-31.111 -31.552 -4.711 40 39 19
-30.872 -31.648 -4.577 104 101 84
-30.647 -31.723 -4.466 76 70 58
-30.496 -31.529 -4.590 171 163 152
-30.335 -31.347 -4.704 49 45 34
-30.130 -31.353 -4.664 40 40 28
-29.952 -31.210 -4.753 90 88 76
-29.756 -31.158 -4.769 55 51 40
-29.519 -31.427 -4.524 52 45 37
-29.328 -31.369 -4.554 58 58 46
-29.140 -31.259 -4.631 14 17 0
-28.944 -31.206 -4.665 176 178 157
-28.739 -31.443 -4.464 112 112 88
-28.545 -31.384 -4.731 97 98 93
-28.351 -31.403 -4.717 101 102 97
-28.158 -31.431 -4.699 99 100 95
-27.966 -31.462 -4.683 99 100 95
-27.775 -31.494 -4.670 103 104 98
-27.585 -31.529 -4.658 102 103 97
-27.396 -31.570 -4.645 102 103 97
-27.209 -31.615 -4.633 99 100 94
-27.023 -31.663 -4.621 104 105 99
-26.838 -31.715 -4.611 104 105 99
-26.655 -31.771 -4.600 102 103 97
-26.474 -31.833 -4.589 105 106 100
-26.295 -31.899 -4.578 107 108 102
-26.118 -31.968 -4.567 106 107 101
-25.942 -32.041 -4.557 107 108 102
-25.769 -32.119 -4.546 110 111 105
-25.598 -32.202 -4.534 108 108 100
-25.431 -32.290 -4.522 110 110 102
-25.265 -32.382 -4.509 112 112 104
-25.103 -32.478 -4.496 114 114 106
-24.943 -32.578 -4.483 111 111 103
-24.787 -32.683 -4.469 115 115 107
-24.633 -32.790 -4.456 114 114 106
-24.483 -32.902 -4.443 115 115 107
-24.335 -33.016 -4.430 114 114 106
-24.190 -33.133 -4.417 108 108 100
-24.049 -33.255 -4.404 116 116 108
-23.912 -33.380 -4.390 118 118 110
-23.776 -33.506 -4.378 122 122 114
-23.644 -33.635 -4.366 122 122 114
-23.517 -33.769 -4.353 126 126 118
-23.394 -33.907 -4.339 123 123 115
-23.274 -34.046 -4.325 123 120 115
-23.158 -34.188 -4.311 123 120 115
-23.046 -34.333 -4.297 123 120 115
-22.938 -34.480 -4.283 124 121 116
-22.834 -34.630 -4.269 124 124 116
-22.734 -34.782 -4.254 121 121 113
-22.639 -34.937 -4.239 125 125 117
-22.547 -35.093 -4.224 123 123 115
-22.460 -35.251 -4.210 125 125 117
-22.376 -35.410 -4.196 129 126 119
-22.296 -35.572 -4.182 130 125 119
-22.216 -35.732 -4.172 133 126 120
-22.144 -35.896 -4.158 130 126 115
-22.077 -36.061 -4.144 131 127 116
-22.015 -36.229 -4.129 129 125 114
-21.959 -36.398 -4.113 131 127 116
-21.907 -36.568 -4.096 128 124 115
-21.862 -36.739 -4.078 131 127 118
-21.820 -36.911 -4.061 133 129 120
-21.782 -37.083 -4.044 131 127 118
-21.749 -37.256 -4.026 132 130 118
-21.718 -37.428 -4.010 138 136 124
-21.692 -37.601 -3.995 133 131 119
-21.669 -37.773 -3.980 132 130 118
-21.649 -37.946 -3.966 132 128 117
-21.637 -38.118 -3.949 135 131 120
-21.630 -38.291 -3.932 135 131 120
-21.628 -38.464 -3.914 133 129 118
-21.632 -38.636 -3.894 127 123 114
-21.640 -38.808 -3.875 132 130 117
-21.653 -38.979 -3.855 133 131 116
-21.662 -39.148 -3.842 132 130 118
-21.675 -39.317 -3.829 144 141 126
-21.690 -39.486 -3.818 137 131 115
-21.707 -39.653 -3.809 139 133 117
-21.725 -39.820 -3.802 144 139 120
-21.752 -39.986 -3.791 140 134 118
-21.781 -40.152 -3.783 143 137 123
-21.807 -40.317 -3.780 156 150 138
-21.830 -40.482 -3.782 157 150 140
-21.849 -40.649 -3.793 147 141 129
-21.867 -40.817 -3.807 140 133 117
-21.893 -40.984 -3.819 167 159 138
-21.922 -41.150 -3.831 161 153 134
-21.951 -41.318 -3.847 133 126 110
-21.975 -41.488 -3.871 83 77 63
-21.994 -41.661 -3.903 110 104 92
-22.013 -41.837 -3.940 162 155 145
-22.045 -42.010 -3.970 184 174 164
-22.078 -42.184 -4.002 199 191 180
-22.115 -42.359 -4.036 202 195 185
-22.156 -42.533 -4.069 210 206 197
-22.202 -42.708 -4.103 130 126 114
-22.257 -42.879 -4.132 159 156 141
-22.323 -43.047 -4.155 162 159 144
-22.398 -43.210 -4.174 154 151 136
-22.484 -43.367 -4.185 149 145 133
-22.579 -43.520 -4.192 181 177 165
-22.680 -43.667 -4.196 172 166 152
-22.792 -43.808 -4.192 163 156 140
-22.914 -43.939 -4.181 164 157 141
-23.044 -44.063 -4.164 172 163 148
-23.179 -44.181 -4.145 171 162 147
-23.324 -44.288 -4.117 177 168 153
-23.466 -44.397 -4.095 182 170 158
-23.611 -44.501 -4.072 180 166 153
-23.756 -44.602 -4.051 171 158 142
-23.900 -44.703 -4.035 161 148 131
-24.045 -44.801 -4.019 159 146 130
-24.191 -44.897 -4.005 165 149 134
-24.340 -44.988 -3.990 166 148 134
-24.491 -45.074 -3.974 166 147 133
-24.644 -45.156 -3.958 165 143 130
-24.799 -45.233 -3.941 168 146 133
-24.954 -45.308 -3.926 166 144 131
-25.111 -45.379 -3.911 166 144 131
-25.270 -45.445 -3.895 169 150 136
-25.430 -45.506 -3.878 174 155 141
-25.592 -45.562 -3.861 176 157 143
-25.753 -45.616 -3.846 173 154 140
-25.915 -45.668 -3.832 181 163 149
-26.078 -45.715 -3.818 174 156 142
-26.241 -45.757 -3.803 179 161 147
-26.406 -45.795 -3.788 172 154 140
-26.570 -45.830 -3.775 177 159 147
-26.735 -45.859 -3.759 170 152 140
-26.901 -45.882 -3.742 169 151 139
-27.066 -45.905 -3.729 164 146 134
-27.232 -45.923 -3.714 162 146 133
-27.397 -45.935 -3.699 164 148 135
-27.563 -45.944 -3.684 161 145 132
-27.728 -45.948 -3.668 159 143 130
-27.893 -45.947 -3.652 152 136 123
-28.057 -45.941 -3.635 154 138 125
-28.221 -45.931 -3.618 156 140 127
-28.383 -45.916 -3.600 153 137 124
-28.545 -45.897 -3.583 155 139 126
-28.706 -45.876 -3.566 152 136 123
-28.866 -45.850 -3.549 165 149 136
-29.025 -45.820 -3.533 155 139 126
-29.183 -45.788 -3.516 159 143 128
-29.339 -45.750 -3.499 153 137 122
-29.493 -45.707 -3.481 158 142 127
-29.646 -45.661 -3.463 152 136 121
-29.797 -45.611 -3.445 152 136 123
-29.948 -45.561 -3.429 153 137 124
-30.096 -45.505 -3.412 151 135 122
-30.243 -45.451 -3.400 151 135 122
-30.388 -45.392 -3.386 140 126 115
-30.532 -45.329 -3.372 141 127 116
-30.673 -45.264 -3.358 143 129 118
-30.812 -45.194 -3.344 144 130 119
-30.948 -45.118 -3.327 150 135 130
-31.083 -45.042 -3.313 101 87 84
-31.221 -44.974 -3.309 79 70 65
-31.354 -44.896 -3.299 81 76 70
-31.486 -44.819 -3.293 79 71 68
-31.616 -44.738 -3.286 78 68 67
-31.741 -44.649 -3.274 74 64 65
-31.863 -44.557 -3.262 63 53 54
-31.986 -44.466 -3.254 54 49 45
-32.116 -44.387 -3.261 52 48 47
-32.262 -44.329 -3.294 64 55 56
-32.452 -44.323 -3.387 50 32 30
-32.645 -44.312 -3.482 69 50 46
-32.883 -44.345 -3.634 46 26 19
-33.127 -44.373 -3.789 88 64 52
-33.324 -44.336 -3.879 90 61 55
-33.524 -44.296 -3.973 56 37 30
-33.779 -44.300 -4.131 76 56 47
-34.028 -44.286 -4.278 112 84 72
-34.240 -44.229 -4.380 112 83 67
-34.447 -44.160 -4.477 65 50 27
-34.669 -44.096 -4.591 96 76 51
-34.836 -43.982 -4.644 184 150 122
-34.954 -43.831 -4.650 237 203 168
-35.048 -43.662 -4.635 228 194 156
-35.149 -43.499 -4.632 231 196 156
-35.249 -43.335 -4.631 211 176 136
-35.327 -43.159 -4.613 180 147 112
-35.400 -42.981 -4.594 148 124 88
-35.484 -42.810 -4.591 126 96 68
-35.541 -42.626 -4.566 115 80 50
-35.610 -42.449 -4.556 180 145 115
-35.668 -42.267 -4.540 75 45 17
-35.731 -42.089 -4.534 82 52 26
-35.793 -41.910 -4.531 87 60 30
-35.854 -41.732 -4.530 72 57 18
-35.920 -41.554 -4.538 70 56 30
-35.979 -41.374 -4.544 50 28 7
-36.032 -41.193 -4.548 54 32 11
-36.110 -41.016 -4.578 39 29 17
-36.196 -40.839 -4.619 122 124 100
-36.247 -40.654 -4.632 83 90 57
-36.271 -40.463 -4.627 85 92 58
-36.287 -40.272 -4.618 30 30 0
-36.289 -40.080 -4.602 104 86 48
-36.255 -39.886 -4.559 88 64 30
-36.229 -39.695 -4.526 55 29 6
-36.227 -39.506 -4.519 45 22 6
-36.235 -39.317 -4.524 50 31 1
-36.230 -39.129 -4.522 117 106 74
-36.197 -38.941 -4.499 64 37 18
-36.168 -38.755 -4.485 60 27 12
-36.129 -38.570 -4.465 141 114 95
-36.076 -38.389 -4.437 78 54 26
-36.025 -38.208 -4.415 40 18 4
-35.990 -38.026 -4.410 55 35 26
-35.952 -37.844 -4.407 137 119 99
-35.912 -37.663 -4.406 33 15 1
-35.896 -37.476 -4.429 53 35 25
-35.871 -37.290 -4.449 152 136 121
-35.813 -37.113 -4.443 84 67 49
-35.749 -36.938 -4.436 28 20 7
-35.686 -36.762 -4.434 18 0 0
-35.622 -36.588 -4.435 46 22 18
-35.553 -36.415 -4.435 72 60 46
-35.489 -36.239 -4.444 107 90 80
-35.395 -36.078 -4.429 123 108 89
-35.286 -35.924 -4.403 118 110 91
-35.189 -35.766 -4.392 27 19 8
-35.105 -35.601 -4.396 63 55 44
-35.009 -35.443 -4.393 33 26 16
-34.911 -35.287 -4.392 88 81 73
-34.813 -35.130 -4.395 21 21 9
-34.703 -34.981 -4.390 32 32 32
-34.594 -34.832 -4.389 6 5 10
-34.477 -34.688 -4.384 40 43 24
-34.359 -34.546 -4.381 7 11 0
-34.234 -34.410 -4.374 10 15 11
-34.108 -34.276 -4.370 5 9 12
-33.986 -34.138 -4.373 15 19 20
-33.868 -33.995 -4.386 9 12 5
-33.749 -33.852 -4.402 29 32 23
-33.621 -33.717 -4.413 26 29 22
-33.489 -33.586 -4.422 23 26 19
-33.365 -33.444 -4.446 24 26 21
-33.530 -32.930 -4.874 44 44 36
-33.421 -32.743 -4.944 131 124 114
-33.097 -32.855 -4.707 21 17 8
-32.946 -32.731 -4.721 37 33 24
-32.801 -32.597 -4.749 58 51 41
-32.647 -32.474 -4.770 50 42 29
-32.491 -32.353 -4.791 125 118 100
-32.337 -32.224 -4.824 76 75 55
-32.179 -32.099 -4.856 60 55 36
-32.026 -31.958 -4.907 203 194 179
-31.760 -32.066 -4.730 68 61 45
-31.575 -32.004 -4.716 31 28 11
-31.398 -31.922 -4.725 41 42 28
-31.225 -31.829 -4.748 29 31 18
-31.064 -31.693 -4.813 69 67 52
-30.915 -31.506 -4.926 148 142 128
-30.706 -31.511 -4.872 57 47 37
-30.498 -31.524 -4.817 51 41 32
-30.299 -31.510 -4.789 79 75 66
-30.125 -31.376 -4.870 63 57 43
-29.945 -31.251 -4.946 130 124 112
-29.702 -31.520 -4.688 62 59 52
-29.495 -31.618 -4.582 12 11 9
-29.307 -31.582 -4.595 21 23 22
-29.121 -31.511 -4.641 24 26 21
-28.939 -31.307 -4.804 50 51 35
-28.739 -31.416 -4.706 45 43 20
-28.545 -31.237 -5.086 95 98 89
-28.348 -31.256 -5.072 99 102 95
-28.151 -31.282 -5.055 98 101 94
-27.955 -31.313 -5.039 101 103 98
-27.760 -31.344 -5.026 101 102 97
-27.567 -31.380 -5.013 102 103 98
-27.374 -31.419 -5.002 101 102 97
-27.183 -31.463 -4.991 101 102 97
-26.993 -31.510 -4.981 103 104 96
-26.804 -31.562 -4.970 103 104 96
-26.617 -31.619 -4.960 105 106 98
-26.432 -31.680 -4.949 105 106 100
-26.249 -31.746 -4.938 105 106 100
-26.067 -31.816 -4.928 105 106 100
-25.888 -31.890 -4.918 107 108 102
-25.711 -31.968 -4.908 106 107 101
-25.536 -32.052 -4.896 108 109 103
-25.364 -32.141 -4.884 110 111 105
-25.195 -32.234 -4.872 110 111 105
-25.029 -32.330 -4.860 110 111 105
-24.865 -32.432 -4.847 112 113 107
-24.705 -32.537 -4.834 112 113 107
-24.547 -32.647 -4.820 113 114 108
-24.393 -32.760 -4.807 110 111 105
-24.241 -32.875 -4.795 110 111 103
-24.093 -32.995 -4.781 112 113 105
-23.949 -33.119 -4.768 113 114 106
-23.807 -33.246 -4.754 113 114 106
-23.668 -33.374 -4.742 119 119 111
-23.532 -33.505 -4.731 115 115 107
-23.401 -33.641 -4.719 118 118 110
-23.274 -33.780 -4.705 119 119 111
-23.150 -33.922 -4.691 120 120 112
-23.031 -34.067 -4.677 120 120 112
-22.916 -34.215 -4.663 124 124 116
-22.804 -34.364 -4.650 124 124 116
-22.697 -34.517 -4.635 125 125 117
-22.594 -34.673 -4.621 123 123 115
-22.494 -34.829 -4.607 123 123 115
-22.401 -34.990 -4.590 122 122 114
-22.311 -35.151 -4.576 123 123 115
-22.224 -35.314 -4.562 126 126 118
-22.142 -35.479 -4.547 125 125 117
-22.064 -35.646 -4.533 127 124 117
-21.990 -35.813 -4.519 127 124 117
-21.920 -35.982 -4.505 126 123 116
-21.856 -36.153 -4.490 127 124 117
-21.798 -36.326 -4.473 127 124 117
-21.745 -36.500 -4.455 129 125 116
-21.698 -36.676 -4.437 132 125 115
-21.653 -36.851 -4.420 133 126 116
-21.613 -37.027 -4.402 131 124 114
-21.578 -37.204 -4.385 132 128 117
-21.547 -37.381 -4.368 133 129 118
-21.521 -37.558 -4.351 136 132 121
-21.497 -37.734 -4.335 135 131 120
-21.476 -37.911 -4.321 130 126 115
-21.462 -38.088 -4.305 133 129 118
-21.454 -38.265 -4.287 130 126 115
-21.450 -38.442 -4.270 134 130 119
-21.450 -38.618 -4.253 135 131 122
-21.456 -38.794 -4.235 137 133 122
-21.465 -38.969 -4.217 135 131 120
-21.471 -39.144 -4.206 134 130 119
-21.484 -39.317 -4.192 134 130 121
-21.503 -39.490 -4.178 138 134 125
-21.526 -39.662 -4.163 137 133 122
-21.554 -39.833 -4.148 134 130 119
-21.585 -40.003 -4.134 138 132 120
-21.616 -40.172 -4.123 137 131 119
-21.652 -40.340 -4.112 143 137 125
-21.688 -40.507 -4.103 140 134 120
-21.725 -40.674 -4.099 145 137 124
-21.763 -40.840 -4.096 145 138 122
-21.805 -41.006 -4.094 150 143 127
-21.853 -41.169 -4.090 159 152 136
-21.904 -41.332 -4.087 150 143 127
-21.959 -41.493 -4.083 151 144 126
-22.013 -41.655 -4.085 152 145 129
-22.062 -41.818 -4.094 158 151 135
-22.105 -41.985 -4.114 140 133 115
-22.142 -42.156 -4.142 112 105 89
-22.181 -42.327 -4.174 110 102 91
-22.217 -42.503 -4.213 166 159 151
-22.265 -42.674 -4.245 75 75 65
-22.309 -42.850 -4.286 126 126 118
-22.368 -43.020 -4.316 122 121 117
-22.433 -43.188 -4.345 88 87 85
-22.501 -43.356 -4.375 86 88 83
-22.570 -43.525 -4.409 80 83 76
-22.653 -43.688 -4.434 86 86 76
-22.745 -43.844 -4.453 125 123 111
-22.843 -43.997 -4.470 115 111 99
-22.951 -44.143 -4.480 150 146 134
-23.064 -44.285 -4.487 160 154 142
-23.178 -44.428 -4.500 170 162 151
-23.294 -44.569 -4.513 212 204 193
-23.421 -44.700 -4.517 209 201 190
-23.559 -44.820 -4.512 209 202 186
-23.715 -44.917 -4.485 177 170 152
-23.879 -45.004 -4.452 175 168 150
-24.042 -45.088 -4.419 186 177 162
-24.204 -45.171 -4.391 188 176 162
-24.365 -45.253 -4.367 171 157 144
-24.526 -45.333 -4.345 164 151 135
-24.687 -45.410 -4.325 168 152 137
-24.849 -45.484 -4.306 164 146 132
-25.011 -45.556 -4.288 170 148 135
-25.174 -45.625 -4.272 165 146 132
-25.337 -45.691 -4.257 158 139 125
-25.502 -45.753 -4.244 171 149 136
-25.668 -45.810 -4.228 162 138 126
-25.834 -45.863 -4.213 172 151 134
-26.002 -45.912 -4.198 169 147 133
-26.170 -45.955 -4.183 170 152 138
-26.340 -45.994 -4.167 168 152 139
-26.509 -46.030 -4.151 171 153 139
-26.679 -46.060 -4.136 168 152 137
-26.850 -46.088 -4.121 185 169 154
-27.020 -46.112 -4.107 161 149 133
-27.190 -46.130 -4.092 160 146 133
-27.361 -46.143 -4.076 157 143 130
-27.531 -46.153 -4.061 161 147 134
-27.702 -46.158 -4.045 155 141 128
-27.872 -46.158 -4.028 160 144 131
-28.041 -46.153 -4.011 159 141 129
-28.210 -46.143 -3.993 158 140 128
-28.378 -46.128 -3.975 155 137 125
-28.545 -46.110 -3.957 167 149 139
-28.712 -46.089 -3.940 163 144 137
-28.877 -46.062 -3.922 158 140 130
-29.041 -46.031 -3.904 154 136 124
-29.203 -45.998 -3.887 158 140 128
-29.365 -45.961 -3.870 161 143 131
-29.525 -45.920 -3.853 153 135 123
-29.683 -45.875 -3.837 154 136 124
-29.840 -45.827 -3.821 148 132 119
-29.996 -45.775 -3.805 151 135 122
-30.150 -45.722 -3.791 150 134 121
-30.303 -45.667 -3.778 153 137 124
-30.453 -45.607 -3.764 146 130 117
-30.602 -45.542 -3.750 140 124 111
-30.749 -45.475 -3.735 158 142 129
-30.893 -45.404 -3.721 138 122 109
-31.036 -45.329 -3.706 143 127 114
-31.177 -45.254 -3.695 133 119 108
-31.325 -45.195 -3.702 102 93 84
-31.469 -45.125 -3.702 209 204 198
-31.599 -45.031 -3.681 139 129 130
-31.725 -44.929 -3.656 74 63 67
-31.853 -44.835 -3.642 69 58 64
-31.979 -44.740 -3.629 69 58 64
-32.103 -44.642 -3.616 70 64 64
-32.225 -44.542 -3.605 60 55 52
-32.344 -44.439 -3.592 68 59 60
-32.464 -44.338 -3.586 57 47 46
-32.606 -44.265 -3.613 30 20 18
-32.803 -44.253 -3.716 32 21 15
-33.044 -44.281 -3.875 69 50 43
-33.232 -44.240 -3.961 81 57 47
-33.416 -44.188 -4.041 45 28 21
-33.660 -44.186 -4.193 39 22 14
-33.919 -44.188 -4.360 88 64 52
-34.130 -44.134 -4.468 97 70 51
-34.339 -44.072 -4.572 74 46 34
-34.583 -44.029 -4.717 106 80 67
-34.785 -43.945 -4.812 114 82 61
-34.918 -43.806 -4.836 229 187 149
-35.026 -43.647 -4.835 230 186 147
-35.127 -43.485 -4.832 208 164 127
-35.223 -43.320 -4.827 175 131 92
-35.321 -43.155 -4.829 147 105 65
-35.409 -42.986 -4.825 123 82 38
-35.488 -42.812 -4.816 112 70 30
-35.568 -42.639 -4.813 111 68 25
-35.642 -42.463 -4.807 123 81 43
-35.709 -42.285 -4.800 133 90 48
-35.770 -42.104 -4.791 139 96 54
-35.830 -41.924 -4.785 160 117 75
-35.886 -41.742 -4.779 160 118 76
-35.938 -41.560 -4.775 162 125 81
-35.988 -41.377 -4.772 180 144 96
-36.026 -41.191 -4.763 195 157 110
-36.023 -40.996 -4.721 198 176 155
-36.086 -40.817 -4.743 24 21 16
-36.176 -40.641 -4.792 84 64 53
-36.212 -40.455 -4.797 96 67 37
-36.234 -40.266 -4.794 108 79 39
-36.265 -40.078 -4.802 106 63 20
-36.288 -39.888 -4.808 106 59 17
-36.295 -39.698 -4.805 111 64 22
-36.292 -39.507 -4.796 113 68 27
-36.280 -39.317 -4.783 159 111 71
-36.271 -39.128 -4.778 184 139 100
-36.254 -38.939 -4.769 210 162 126
-36.229 -38.751 -4.757 221 173 137
-36.208 -38.563 -4.753 235 186 146
-36.187 -38.375 -4.752 232 185 143
-36.161 -38.188 -4.752 228 183 144
-36.123 -38.002 -4.745 190 144 108
-36.087 -37.817 -4.744 225 182 139
-36.039 -37.635 -4.736 215 179 147
-35.964 -37.459 -4.707 102 61 33
-35.882 -37.287 -4.675 103 72 43
-35.787 -37.121 -4.636 108 81 51
-35.699 -36.954 -4.607 147 117 93
-35.612 -36.789 -4.582 103 70 53
-35.555 -36.613 -4.589 77 42 23
-35.489 -36.441 -4.591 185 160 140
-35.412 -36.273 -4.587 82 59 41
-35.330 -36.108 -4.582 108 85 67
-35.241 -35.947 -4.574 92 71 52
-35.144 -35.790 -4.562 128 110 96
-35.048 -35.634 -4.554 117 101 88
-34.951 -35.478 -4.549 28 12 0
-34.849 -35.326 -4.543 121 105 90
-34.724 -35.189 -4.516 24 12 12
-34.605 -35.050 -4.499 10 2 0
-34.498 -34.903 -4.499 22 15 5
-34.385 -34.760 -4.496 28 19 14
-34.273 -34.617 -4.498 14 10 7
-34.155 -34.478 -4.497 7 7 5
-34.034 -34.343 -4.496 7 11 14
-33.912 -34.208 -4.498 7 12 16
-33.797 -34.066 -4.513 10 9 7
-33.686 -33.918 -4.538 0 1 0
-33.560 -33.785 -4.548 30 35 29
-33.428 -33.657 -4.556 21 24 17
-33.305 -33.518 -4.579 8 10 9
-33.468 -33.009 -5.017 39 44 38
-33.369 -32.813 -5.101 113 104 97
-33.027 -32.954 -4.826 53 44 37
-32.883 -32.826 -4.846 24 17 11
-32.747 -32.682 -4.888 104 90 79
-32.596 -32.559 -4.910 69 62 54
-32.441 -32.441 -4.931 135 130 124
-32.293 -32.306 -4.972 73 71 56
-32.169 -32.119 -5.067 77 75 54
-32.005 -32.003 -5.096 193 185 164
-31.817 -31.936 -5.081 168 159 144
-31.641 -31.844 -5.094 163 156 140
-31.449 -31.789 -5.076 166 161 142
-31.265 -31.717 -5.079 176 173 156
-31.073 -31.667 -5.066 173 170 155
-30.886 -31.600 -5.072 150 141 126
-30.678 -31.613 -5.011 47 39 26
-30.480 -31.592 -4.984 71 63 50
-30.302 -31.496 -5.030 130 120 110
-30.126 -31.373 -5.103 149 139 129
-29.906 -31.479 -4.976 24 21 14
-29.677 -31.689 -4.763 67 60 50
-29.479 -31.750 -4.687 18 17 13
-29.293 -31.727 -4.688 18 17 23
-29.108 -31.697 -4.701 12 9 16
-28.928 -31.538 -4.830 51 51 51
-28.740 -31.410 -4.936 201 194 184
-28.545 -31.101 -5.447 99 96 87
-28.344 -31.114 -5.437 101 98 91
-28.144 -31.141 -5.420 107 104 99
-27.944 -31.169 -5.405 104 100 97
-27.746 -31.201 -5.392 99 100 95
-27.549 -31.237 -5.379 99 100 95
-27.353 -31.279 -5.366 98 99 94
-27.158 -31.323 -5.353 98 99 94
-26.965 -31.371 -5.343 103 104 96
-26.773 -31.424 -5.332 103 104 96
-26.582 -31.479 -5.324 102 103 97
-26.393 -31.541 -5.313 101 102 97
-26.207 -31.607 -5.303 103 104 98
-26.022 -31.678 -5.292 103 104 98
-25.838 -31.751 -5.283 103 104 98
-25.657 -31.830 -5.273 108 109 103
-25.479 -31.915 -5.262 108 109 103
-25.304 -32.004 -5.251 106 107 101
-25.131 -32.097 -5.239 108 109 103
-24.960 -32.194 -5.228 108 109 103
-24.793 -32.296 -5.215 110 111 105
-24.628 -32.403 -5.203 110 111 105
-24.467 -32.514 -5.189 110 111 105
-24.310 -32.629 -5.176 111 112 106
-24.155 -32.746 -5.163 111 112 104
-24.003 -32.868 -5.150 110 111 103
-23.855 -32.993 -5.136 111 112 104
-23.711 -33.123 -5.122 113 114 106
-23.569 -33.254 -5.110 114 114 106
-23.430 -33.387 -5.098 115 115 107
-23.295 -33.524 -5.086 115 115 107
-23.166 -33.667 -5.071 116 116 108
-23.040 -33.811 -5.057 117 117 109
-22.917 -33.959 -5.043 117 117 109
-22.799 -34.109 -5.029 119 119 111
-22.683 -34.260 -5.017 119 119 111
-22.573 -34.416 -5.003 118 118 110
-22.469 -34.575 -4.986 121 121 113
-22.365 -34.734 -4.974 123 123 115
-22.269 -34.897 -4.958 121 121 113
-22.175 -35.061 -4.944 125 125 117
-22.087 -35.228 -4.929 126 126 118
-22.003 -35.396 -4.913 122 122 114
-21.924 -35.566 -4.897 122 122 114
-21.849 -35.738 -4.882 127 124 117
-21.777 -35.910 -4.868 126 123 116
-21.711 -36.085 -4.852 127 124 117
-21.651 -36.261 -4.835 127 124 117
-21.595 -36.438 -4.818 131 127 118
-21.545 -36.617 -4.801 129 125 114
-21.498 -36.796 -4.784 129 125 114
-21.455 -36.975 -4.768 128 124 113
-21.419 -37.155 -4.750 130 126 115
-21.387 -37.336 -4.732 131 129 117
-21.360 -37.517 -4.714 128 126 114
-21.335 -37.698 -4.698 130 128 116
-21.315 -37.879 -4.682 131 127 116
-21.301 -38.060 -4.665 131 127 116
-21.291 -38.241 -4.647 133 129 118
-21.284 -38.422 -4.632 133 129 118
-21.282 -38.602 -4.615 133 129 118
-21.284 -38.782 -4.599 136 132 121
-21.290 -38.961 -4.584 133 129 118
-21.303 -39.139 -4.567 133 129 118
-21.317 -39.317 -4.551 133 129 118
-21.336 -39.494 -4.536 134 130 119
-21.357 -39.670 -4.523 135 131 120
-21.384 -39.846 -4.508 136 132 121
-21.415 -40.020 -4.494 139 133 121
-21.447 -40.193 -4.483 138 132 120
-21.481 -40.365 -4.473 140 134 122
-21.520 -40.536 -4.463 137 131 119
-21.559 -40.707 -4.456 141 135 121
-21.602 -40.876 -4.450 129 123 109
-21.651 -41.044 -4.442 143 137 123
-21.707 -41.210 -4.431 139 133 119
-21.763 -41.375 -4.424 142 136 120
-21.828 -41.536 -4.412 142 136 120
-21.899 -41.696 -4.398 152 146 130
-21.971 -41.853 -4.386 152 146 130
-22.046 -42.010 -4.377 145 140 120
-22.119 -42.166 -4.372 163 158 138
-22.184 -42.326 -4.378 148 142 126
-22.264 -42.479 -4.374 142 136 124
-22.332 -42.638 -4.385 98 94 83
-22.393 -42.803 -4.409 72 68 57
-22.455 -42.968 -4.436 80 75 69
-22.519 -43.134 -4.465 71 66 63
-22.588 -43.298 -4.494 56 55 51
-22.653 -43.467 -4.532 57 56 51
-22.725 -43.634 -4.568 52 53 48
-22.809 -43.794 -4.595 78 79 74
-22.894 -43.955 -4.626 57 56 54
-22.991 -44.109 -4.648 59 58 54
-23.089 -44.263 -4.674 87 84 77
-23.187 -44.419 -4.705 184 180 169
-23.292 -44.571 -4.734 187 180 170
-23.402 -44.720 -4.761 189 180 171
-23.519 -44.864 -4.784 151 143 132
-23.645 -44.999 -4.800 197 189 178
-23.779 -45.125 -4.810 191 185 169
-23.921 -45.243 -4.813 195 189 173
-24.070 -45.352 -4.810 214 207 191
-24.229 -45.447 -4.795 207 198 183
-24.394 -45.530 -4.772 171 164 148
-24.564 -45.604 -4.744 185 178 162
-24.736 -45.672 -4.715 193 184 169
-24.909 -45.737 -4.687 183 169 156
-25.081 -45.799 -4.661 172 156 141
-25.253 -45.858 -4.637 169 153 137
-25.424 -45.918 -4.618 167 150 134
-25.595 -45.974 -4.599 165 146 131
-25.765 -46.029 -4.584 167 144 130
-25.937 -46.080 -4.570 167 145 131
-26.109 -46.127 -4.555 165 146 132
-26.282 -46.169 -4.540 164 144 133
-26.455 -46.208 -4.527 165 146 132
-26.629 -46.242 -4.512 165 146 132
-26.803 -46.272 -4.498 168 150 136
-26.978 -46.298 -4.485 161 145 130
-27.153 -46.319 -4.470 165 149 136
-27.328 -46.334 -4.454 163 147 134
-27.503 -46.344 -4.439 163 147 134
-27.678 -46.350 -4.423 156 140 127
-27.853 -46.350 -4.405 158 140 128
-28.027 -46.346 -4.388 164 146 134
-28.201 -46.337 -4.370 163 145 133
-28.373 -46.323 -4.352 168 150 138
-28.545 -46.306 -4.334 154 135 128
-28.717 -46.285 -4.317 162 143 136
-28.886 -46.258 -4.298 139 121 111
-29.055 -46.226 -4.279 151 133 121
-29.223 -46.193 -4.262 147 129 117
-29.389 -46.156 -4.245 154 136 124
-29.554 -46.115 -4.229 148 130 118
-29.717 -46.071 -4.213 154 136 124
-29.879 -46.023 -4.196 143 127 114
-30.040 -45.972 -4.182 142 126 113
-30.199 -45.920 -4.169 141 125 112
-30.357 -45.864 -4.157 142 126 113
-30.513 -45.804 -4.144 133 117 104
-30.667 -45.739 -4.130 132 116 103
-30.818 -45.669 -4.114 138 122 109
-30.967 -45.596 -4.099 139 123 110
-31.116 -45.523 -4.088 140 122 110
-31.262 -45.446 -4.076 143 125 115
-31.407 -45.367 -4.066 148 134 125
-31.549 -45.285 -4.055 116 103 97
-31.687 -45.195 -4.040 97 86 82
-31.820 -45.099 -4.022 77 66 64
-31.953 -45.003 -4.008 66 56 55
-32.083 -44.903 -3.992 69 59 60
-32.210 -44.802 -3.979 59 49 48
-32.335 -44.698 -3.964 64 54 53
-32.456 -44.590 -3.950 63 53 52
-32.575 -44.481 -3.936 61 51 50
-32.692 -44.370 -3.924 71 62 63
-32.811 -44.263 -3.919 66 58 56
-32.973 -44.202 -3.975 36 25 21
-33.153 -44.157 -4.057 93 80 72
-33.325 -44.097 -4.127 43 33 32
-33.548 -44.081 -4.261 23 12 10
-33.809 -44.088 -4.438 80 60 51
-34.020 -44.040 -4.553 94 65 49
-34.223 -43.977 -4.657 84 61 45
-34.469 -43.940 -4.810 55 31 19
-34.690 -43.874 -4.934 121 90 70
-34.831 -43.744 -4.968 124 82 44
-34.943 -43.592 -4.973 156 113 71
-35.043 -43.432 -4.970 192 149 107
-35.140 -43.270 -4.968 222 179 137
-35.232 -43.105 -4.966 234 191 149
-35.319 -42.938 -4.961 232 189 147
-35.401 -42.768 -4.956 232 189 147
-35.478 -42.596 -4.950 229 186 144
-35.551 -42.422 -4.945 226 183 141
-35.618 -42.247 -4.939 220 177 134
-35.682 -42.070 -4.932 224 181 138
-35.741 -41.892 -4.927 221 178 135
-35.794 -41.712 -4.919 219 176 133
-35.840 -41.530 -4.909 222 181 137
-35.887 -41.349 -4.904 222 181 135
-35.918 -41.164 -4.889 206 172 135
-35.873 -40.963 -4.807 31 18 9
-35.955 -40.791 -4.847 30 27 22
-36.070 -40.623 -4.921 109 77 62
-36.121 -40.441 -4.941 121 77 42
-36.156 -40.256 -4.950 226 183 141
-36.184 -40.070 -4.957 225 178 134
-36.200 -39.882 -4.956 225 178 134
-36.208 -39.694 -4.953 213 166 122
-36.211 -39.505 -4.950 218 171 127
-36.206 -39.317 -4.943 224 176 127
-36.195 -39.130 -4.935 217 169 120
-36.180 -38.942 -4.928 221 173 124
-36.159 -38.756 -4.920 218 170 121
-36.137 -38.570 -4.914 218 168 119
-36.111 -38.384 -4.909 210 159 112
-36.084 -38.199 -4.907 213 165 119
-36.050 -38.015 -4.903 213 166 122
-36.013 -37.832 -4.901 216 166 117
-35.973 -37.649 -4.900 155 121 96
-35.949 -37.463 -4.918 65 32 17
-35.946 -37.269 -4.959 179 142 113
-35.891 -37.089 -4.957 210 172 136
-35.826 -36.912 -4.949 218 177 145
-35.751 -36.739 -4.936 232 191 161
-35.674 -36.567 -4.925 225 183 158
-35.600 -36.395 -4.921 224 183 151
-35.520 -36.226 -4.915 234 193 161
-35.429 -36.062 -4.902 218 177 145
-35.336 -35.899 -4.891 227 186 156
-35.235 -35.742 -4.875 230 191 162
-35.135 -35.585 -4.864 234 197 168
-35.030 -35.431 -4.852 210 173 144
-34.920 -35.281 -4.838 216 179 150
-34.816 -35.127 -4.835 226 190 168
-34.713 -34.974 -4.837 218 182 158
-34.613 -34.817 -4.846 193 159 131
-34.481 -34.685 -4.824 216 184 159
-34.342 -34.561 -4.796 182 148 123
-34.185 -34.452 -4.750 127 95 72
-34.047 -34.331 -4.730 71 44 25
-33.908 -34.211 -4.711 46 24 10
-33.780 -34.083 -4.709 27 8 0
-33.652 -33.954 -4.712 21 5 0
-33.521 -33.828 -4.715 30 18 6
-33.390 -33.702 -4.722 30 16 7
-33.263 -33.569 -4.740 46 32 29
-33.394 -33.104 -5.143 43 40 33
-33.313 -32.889 -5.254 117 104 96
-32.955 -33.057 -4.940 63 45 35
-32.817 -32.925 -4.968 17 7 0
-32.687 -32.776 -5.017 87 78 63
-32.535 -32.661 -5.034 49 43 31
-32.369 -32.567 -5.032 37 33 22
-32.241 -32.403 -5.105 47 38 23
-32.130 -32.196 -5.226 110 102 81
-31.969 -32.080 -5.256 132 126 104
-31.789 -32.001 -5.253 153 146 130
-31.608 -31.925 -5.252 136 133 116
-31.425 -31.852 -5.252 79 76 59
-31.243 -31.778 -5.258 86 83 68
-31.060 -31.706 -5.265 120 114 102
-30.870 -31.656 -5.256 151 142 127
-30.677 -31.616 -5.242 165 158 140
-30.487 -31.567 -5.242 128 121 103
-30.297 -31.516 -5.247 104 92 76
-30.095 -31.527 -5.199 47 34 25
-29.884 -31.603 -5.096 67 66 62
-29.666 -31.766 -4.919 116 112 100
-29.468 -31.840 -4.829 63 56 46
-29.282 -31.835 -4.814 30 30 22
-29.099 -31.817 -4.816 21 24 13
-28.915 -31.787 -4.834 13 16 5
-28.736 -31.568 -5.025 6 9 0
-28.545 -30.981 -5.808 111 104 96
-28.341 -31.003 -5.789 111 104 98
-28.139 -31.034 -5.768 114 106 103
-27.937 -31.064 -5.751 114 106 104
-27.736 -31.097 -5.737 108 107 103
-27.536 -31.134 -5.722 103 104 99
-27.337 -31.173 -5.711 98 99 94
-27.140 -31.219 -5.698 99 100 95
-26.944 -31.269 -5.686 101 102 96
-26.750 -31.322 -5.675 98 99 93
-26.557 -31.379 -5.665 101 102 97
-26.366 -31.441 -5.654 102 102 100
-26.177 -31.509 -5.643 99 100 94
-25.989 -31.580 -5.632 102 103 97
-25.804 -31.655 -5.622 101 102 96
-25.621 -31.735 -5.611 105 106 100
-25.440 -31.820 -5.600 105 106 100
-25.263 -31.911 -5.587 106 107 101
-25.087 -32.006 -5.575 105 106 100
-24.915 -32.105 -5.563 106 107 101
-24.745 -32.207 -5.551 103 104 98
-24.578 -32.314 -5.539 105 106 100
-24.415 -32.426 -5.525 106 107 101
-24.255 -32.542 -5.511 106 107 101
-24.097 -32.660 -5.499 105 106 98
-23.943 -32.782 -5.486 110 111 103
-23.793 -32.909 -5.473 110 111 103
-23.646 -33.039 -5.459 111 112 104
-23.502 -33.172 -5.446 113 113 105
-23.361 -33.307 -5.435 113 113 105
-23.224 -33.446 -5.422 112 112 104
-23.091 -33.589 -5.408 112 112 104
-22.963 -33.735 -5.394 113 113 105
-22.839 -33.884 -5.380 117 117 109
-22.718 -34.036 -5.366 115 115 107
-22.602 -34.190 -5.352 116 116 108
-22.489 -34.347 -5.338 117 117 109
-22.381 -34.506 -5.324 119 119 111
-22.278 -34.669 -5.309 121 121 113
-22.179 -34.834 -5.293 122 122 114
-22.084 -35.000 -5.278 123 123 115
-21.993 -35.168 -5.264 124 124 116
-21.907 -35.338 -5.249 129 129 121
-21.825 -35.510 -5.235 121 121 113
-21.747 -35.684 -5.220 127 124 117
-21.672 -35.857 -5.208 125 122 115
-21.599 -36.032 -5.197 126 123 116
-21.532 -36.208 -5.185 126 123 116
-21.473 -36.388 -5.170 127 124 115
-21.420 -36.569 -5.153 127 124 115
-21.371 -36.750 -5.136 123 120 111
-21.329 -36.933 -5.119 124 121 112
-21.292 -37.117 -5.099 125 122 113
-21.261 -37.302 -5.079 127 124 115
-21.233 -37.486 -5.061 126 123 114
-21.208 -37.670 -5.044 131 128 119
-21.188 -37.854 -5.026 133 129 118
-21.171 -38.038 -5.010 131 127 116
-21.159 -38.222 -4.993 133 129 118
-21.151 -38.405 -4.979 130 126 115
-21.148 -38.589 -4.962 133 129 118
-21.148 -38.772 -4.947 126 122 111
-21.153 -38.954 -4.932 126 122 111
-21.163 -39.136 -4.917 131 127 116
-21.176 -39.317 -4.902 126 122 111
-21.194 -39.498 -4.887 130 126 115
-21.215 -39.677 -4.874 131 127 116
-21.241 -39.856 -4.860 130 126 115
-21.271 -40.034 -4.847 134 127 117
-21.304 -40.210 -4.834 132 125 115
-21.341 -40.386 -4.822 134 127 117
-21.382 -40.560 -4.810 134 127 117
-21.426 -40.733 -4.798 131 127 115
-21.474 -40.905 -4.788 132 128 116
-21.525 -41.076 -4.778 132 128 116
-21.582 -41.244 -4.767 133 129 117
-21.640 -41.412 -4.758 133 129 117
-21.704 -41.577 -4.748 135 131 119
-21.775 -41.740 -4.735 131 127 115
-21.847 -41.901 -4.725 133 129 117
-21.923 -42.061 -4.714 137 134 117
-22.000 -42.219 -4.705 137 134 115
-22.083 -42.374 -4.695 134 131 114
-22.173 -42.525 -4.682 141 138 121
-22.266 -42.674 -4.669 145 139 123
-22.362 -42.820 -4.656 152 145 129
-22.457 -42.966 -4.648 153 145 132
-22.551 -43.113 -4.646 155 147 136
-22.644 -43.260 -4.647 146 140 128
-22.738 -43.408 -4.653 93 89 78
-22.817 -43.566 -4.680 68 65 58
-22.896 -43.726 -4.712 80 81 76
-22.979 -43.886 -4.745 74 72 75
-23.066 -44.044 -4.778 64 62 63
-23.156 -44.202 -4.813 135 132 127
-23.249 -44.360 -4.849 146 142 131
-23.350 -44.513 -4.881 165 157 146
-23.455 -44.664 -4.914 189 179 169
-23.562 -44.815 -4.950 171 161 152
-23.676 -44.963 -4.983 207 197 188
-23.791 -45.110 -5.019 198 190 179
-23.912 -45.255 -5.054 201 195 181
-24.039 -45.394 -5.085 159 153 139
-24.171 -45.528 -5.115 148 142 128
-24.311 -45.655 -5.139 112 108 96
-24.461 -45.767 -5.150 187 183 171
-24.622 -45.863 -5.148 226 222 210
-24.795 -45.937 -5.126 213 207 195
-24.968 -46.011 -5.108 167 160 144
-25.149 -46.065 -5.076 183 174 157
-25.332 -46.112 -5.040 189 177 161
-25.515 -46.154 -5.004 181 168 152
-25.696 -46.196 -4.973 185 169 156
-25.876 -46.238 -4.948 163 145 133
-26.054 -46.279 -4.926 164 146 134
-26.232 -46.320 -4.907 164 146 132
-26.410 -46.358 -4.891 171 152 138
-26.587 -46.395 -4.878 165 146 132
-26.765 -46.427 -4.864 163 144 130
-26.944 -46.450 -4.847 165 143 130
-27.122 -46.471 -4.832 162 144 132
-27.301 -46.489 -4.817 156 138 126
-27.480 -46.501 -4.802 156 138 126
-27.658 -46.509 -4.787 164 146 134
-27.837 -46.511 -4.771 161 143 131
-28.015 -46.510 -4.755 157 139 127
-28.192 -46.503 -4.738 158 140 128
-28.369 -46.489 -4.719 158 140 128
-28.545 -46.472 -4.701 160 141 134
-28.721 -46.451 -4.683 151 132 125
-28.895 -46.424 -4.664 150 132 122
-29.067 -46.393 -4.645 148 130 118
-29.239 -46.360 -4.628 142 124 112
-29.410 -46.324 -4.612 149 131 119
-29.579 -46.284 -4.596 141 123 111
-29.747 -46.240 -4.581 148 130 118
-29.913 -46.191 -4.564 159 142 132
-30.078 -46.140 -4.549 149 132 122
-30.241 -46.086 -4.535 162 145 135
-30.402 -46.028 -4.521 142 125 115
-30.562 -45.966 -4.508 151 134 124
-30.720 -45.901 -4.494 138 121 111
-30.877 -45.832 -4.481 130 113 103
-31.030 -45.758 -4.466 131 114 104
-31.181 -45.681 -4.451 122 102 93
-31.331 -45.602 -4.439 128 108 101
-31.478 -45.518 -4.425 132 113 106
-31.622 -45.429 -4.408 127 108 102
-31.764 -45.338 -4.394 122 105 97
-31.904 -45.245 -4.381 136 122 113
-32.040 -45.147 -4.366 126 113 105
-32.172 -45.044 -4.349 118 108 99
-32.303 -44.941 -4.335 95 84 82
-32.432 -44.835 -4.321 60 49 47
-32.558 -44.727 -4.308 83 72 70
-32.681 -44.617 -4.296 78 67 65
-32.801 -44.503 -4.283 66 56 55
-32.918 -44.386 -4.269 70 62 60
-33.032 -44.268 -4.258 68 63 59
-33.144 -44.147 -4.246 60 57 52
-33.279 -44.051 -4.270 30 28 29
-33.453 -43.989 -4.346 26 20 20
-33.691 -43.981 -4.505 59 44 39
-33.908 -43.943 -4.633 89 64 57
-34.109 -43.883 -4.741 99 79 68
-34.346 -43.844 -4.892 57 35 24
-34.583 -43.795 -5.040 117 86 68
-34.728 -43.672 -5.083 228 185 150
-34.838 -43.522 -5.088 215 171 126
-34.935 -43.364 -5.084 221 177 132
-35.030 -43.204 -5.081 220 176 131
-35.120 -43.042 -5.078 217 173 128
-35.206 -42.877 -5.073 212 168 123
-35.286 -42.710 -5.068 207 163 118
-35.362 -42.541 -5.063 206 162 117
-35.435 -42.371 -5.058 209 165 120
-35.503 -42.199 -5.054 213 171 121
-35.567 -42.026 -5.048 214 173 121
-35.624 -41.850 -5.042 220 179 127
-35.677 -41.673 -5.035 220 179 127
-35.722 -41.494 -5.024 216 176 127
-35.765 -41.315 -5.016 231 184 132
-35.763 -41.125 -4.968 144 118 93
-35.705 -40.925 -4.873 18 18 18
-35.825 -40.765 -4.951 38 31 25
-35.956 -40.603 -5.045 83 45 22
-36.014 -40.425 -5.071 216 167 124
-36.044 -40.242 -5.076 211 163 115
-36.066 -40.058 -5.078 211 160 113
-36.078 -39.873 -5.074 203 155 107
-36.084 -39.688 -5.069 207 159 111
-36.086 -39.502 -5.065 215 167 119
-36.081 -39.317 -5.057 213 162 117
-36.069 -39.133 -5.048 214 163 118
-36.053 -38.948 -5.040 209 158 113
-36.033 -38.765 -5.032 203 152 107
-36.012 -38.582 -5.027 198 146 96
-35.986 -38.400 -5.021 192 140 90
-35.958 -38.218 -5.018 181 131 82
-35.922 -38.037 -5.013 180 132 84
-35.883 -37.858 -5.007 175 123 76
-35.829 -37.682 -4.992 32 6 0
-35.819 -37.495 -5.023 52 32 31
-35.832 -37.301 -5.081 207 166 138
-35.790 -37.120 -5.090 218 172 136
-35.734 -36.942 -5.091 217 171 137
-35.671 -36.768 -5.088 217 171 137
-35.605 -36.594 -5.087 216 170 137
-35.533 -36.423 -5.084 212 169 135
-35.459 -36.253 -5.083 215 175 140
-35.379 -36.085 -5.080 219 178 146
-35.294 -35.920 -5.077 216 175 145
-35.206 -35.757 -5.074 218 177 145
-35.112 -35.597 -5.069 216 173 141
-35.013 -35.441 -5.063 217 174 142
-34.912 -35.286 -5.058 214 171 139
-34.810 -35.132 -5.056 215 170 139
-34.703 -34.981 -5.054 194 148 114
-34.590 -34.834 -5.049 160 120 85
-34.477 -34.688 -5.047 25 0 0
-34.364 -34.542 -5.050 66 22 0
-34.245 -34.401 -5.050 81 36 5
-34.119 -34.265 -5.046 85 44 16
-33.990 -34.133 -5.041 81 44 18
-33.858 -34.004 -5.037 86 46 21
-33.719 -33.883 -5.027 89 52 26
-33.579 -33.763 -5.021 97 61 39
-33.424 -33.662 -4.996 152 111 93
-33.272 -33.558 -4.978 103 65 46
-33.310 -33.212 -5.253 62 46 31
-33.265 -32.953 -5.421 127 110 102
-32.887 -33.152 -5.062 108 79 61
-32.736 -33.046 -5.065 98 66 43
-32.612 -32.896 -5.118 83 61 48
-32.456 -32.793 -5.124 144 113 95
-32.283 -32.719 -5.102 106 75 55
-32.167 -32.541 -5.196 112 89 75
-32.071 -32.313 -5.344 113 97 81
-31.917 -32.188 -5.387 153 146 128
-31.746 -32.096 -5.398 131 124 106
-31.566 -32.025 -5.393 179 173 157
-31.384 -31.959 -5.386 107 101 85
-31.201 -31.896 -5.382 33 27 13
-31.019 -31.831 -5.385 91 83 72
-30.836 -31.768 -5.389 83 74 59
-30.651 -31.710 -5.393 130 123 104
-30.462 -31.666 -5.388 100 92 71
-30.271 -31.635 -5.374 120 105 84
-30.059 -31.708 -5.266 55 33 20
-29.878 -31.637 -5.301 48 43 39
-29.658 -31.818 -5.101 20 12 0
-29.461 -31.898 -5.001 35 14 0
-29.277 -31.893 -4.987 61 34 25
-29.093 -31.897 -4.969 75 48 41
-28.910 -31.892 -4.963 37 14 8
-28.729 -31.840 -5.006 66 47 41
-28.545 -30.850 -6.194 93 90 81
-28.338 -30.862 -6.185 102 99 92
-28.132 -30.891 -6.165 109 106 101
-27.926 -30.920 -6.149 104 100 97
-27.722 -30.951 -6.136 103 102 98
-27.518 -30.987 -6.123 92 93 88
-27.316 -31.026 -6.112 98 99 94
-27.115 -31.071 -6.100 99 100 95
-26.915 -31.120 -6.089 99 100 94
-26.716 -31.172 -6.079 99 100 95
-26.519 -31.228 -6.070 98 98 96
-26.324 -31.291 -6.060 99 99 97
-26.131 -31.359 -6.048 100 101 96
-25.940 -31.430 -6.039 101 102 96
-25.751 -31.506 -6.029 101 102 96
-25.563 -31.586 -6.020 101 102 96
-25.378 -31.671 -6.010 102 103 97
-25.196 -31.761 -5.999 103 104 98
-25.017 -31.857 -5.987 100 101 95
-24.841 -31.957 -5.974 105 106 100
-24.667 -32.062 -5.962 104 105 99
-24.496 -32.169 -5.951 108 109 103
-24.329 -32.283 -5.937 104 105 99
-24.166 -32.401 -5.923 104 105 99
-24.005 -32.522 -5.910 107 108 100
-23.847 -32.646 -5.897 106 107 99
-23.694 -32.776 -5.882 106 107 99
-23.544 -32.908 -5.868 107 108 100
-23.397 -33.044 -5.855 110 110 102
-23.253 -33.181 -5.842 110 110 102
-23.113 -33.324 -5.829 109 109 101
-22.978 -33.470 -5.814 110 110 102
-22.846 -33.618 -5.801 110 110 102
-22.718 -33.769 -5.787 111 111 103
-22.594 -33.923 -5.774 112 112 104
-22.474 -34.080 -5.760 113 113 105
-22.358 -34.239 -5.747 114 114 106
-22.247 -34.402 -5.732 116 116 108
-22.139 -34.566 -5.719 120 120 112
-22.037 -34.733 -5.704 118 118 110
-21.939 -34.903 -5.690 118 118 110
-21.846 -35.075 -5.674 119 119 111
-21.758 -35.249 -5.659 120 120 112
-21.673 -35.424 -5.644 126 126 118
-21.593 -35.601 -5.629 128 125 118
-21.517 -35.779 -5.616 124 121 114
-21.445 -35.959 -5.602 124 121 114
-21.378 -36.140 -5.587 125 122 115
-21.317 -36.323 -5.572 126 123 116
-21.263 -36.508 -5.555 126 123 116
-21.212 -36.693 -5.538 125 122 115
-21.166 -36.880 -5.521 125 122 115
-21.127 -37.067 -5.502 122 122 114
-21.093 -37.255 -5.483 123 123 115
-21.063 -37.443 -5.465 126 126 118
-21.036 -37.631 -5.449 125 125 117
-21.013 -37.819 -5.432 124 120 109
-20.998 -38.008 -5.413 128 124 113
-20.986 -38.196 -5.396 128 124 113
-20.978 -38.384 -5.379 128 124 113
-20.975 -38.572 -5.362 125 121 110
-20.976 -38.759 -5.345 128 124 113
-20.983 -38.946 -5.328 125 121 110
-20.993 -39.132 -5.312 123 119 108
-21.007 -39.317 -5.296 131 127 116
-21.025 -39.502 -5.280 130 126 115
-21.047 -39.686 -5.266 128 124 113
-21.073 -39.869 -5.252 127 123 112
-21.104 -40.050 -5.237 130 123 115
-21.137 -40.231 -5.224 133 126 118
-21.175 -40.411 -5.211 132 125 117
-21.217 -40.589 -5.198 135 128 120
-21.263 -40.766 -5.186 136 132 121
-21.313 -40.941 -5.174 137 135 123
-21.368 -41.115 -5.161 137 135 123
-21.427 -41.287 -5.149 137 135 123
-21.488 -41.458 -5.137 137 135 123
-21.556 -41.626 -5.124 131 129 117
-21.628 -41.792 -5.110 134 132 120
-21.704 -41.956 -5.097 132 130 118
-21.781 -42.119 -5.086 134 132 120
-21.862 -42.280 -5.075 133 131 119
-21.951 -42.436 -5.060 132 130 118
-22.042 -42.591 -5.047 134 132 119
-22.137 -42.743 -5.033 136 133 118
-22.234 -42.893 -5.020 136 133 118
-22.332 -43.042 -5.011 137 134 117
-22.435 -43.187 -5.000 139 136 119
-22.544 -43.328 -4.986 140 137 122
-22.655 -43.466 -4.973 147 144 129
-22.768 -43.602 -4.962 132 126 112
-22.881 -43.738 -4.954 150 144 128
-22.991 -43.875 -4.954 154 148 136
-23.099 -44.015 -4.961 117 111 99
-23.205 -44.157 -4.975 139 132 116
-23.310 -44.302 -4.996 175 166 149
-23.414 -44.449 -5.023 167 159 140
-23.517 -44.599 -5.058 137 128 111
-23.620 -44.752 -5.099 83 74 59
-23.725 -44.906 -5.142 187 177 165
-23.832 -45.061 -5.191 187 179 168
-23.947 -45.210 -5.234 193 187 175
-24.070 -45.351 -5.270 182 178 166
-24.200 -45.488 -5.304 174 172 159
-24.332 -45.624 -5.341 196 192 181
-24.466 -45.759 -5.379 209 202 192
-24.603 -45.894 -5.421 196 189 179
-24.746 -46.025 -5.461 145 138 128
-24.896 -46.144 -5.492 143 141 129
-25.059 -46.245 -5.506 158 156 144
-25.232 -46.323 -5.500 160 156 145
-25.413 -46.384 -5.481 162 155 145
-25.596 -46.439 -5.460 161 155 143
-25.781 -46.485 -5.435 171 163 150
-25.967 -46.522 -5.406 168 159 144
-26.156 -46.550 -5.372 176 164 148
-26.346 -46.569 -5.334 175 163 147
-26.532 -46.594 -5.307 162 149 133
-26.716 -46.621 -5.287 167 151 136
-26.900 -46.643 -5.266 159 141 127
-27.084 -46.663 -5.249 160 140 129
-27.268 -46.679 -5.231 162 142 131
-27.452 -46.692 -5.215 161 141 130
-27.635 -46.700 -5.200 163 143 132
-27.818 -46.703 -5.183 158 140 128
-28.001 -46.703 -5.167 157 139 127
-28.183 -46.696 -5.149 153 135 123
-28.365 -46.683 -5.131 157 139 127
-28.545 -46.667 -5.113 153 134 127
-28.725 -46.645 -5.094 160 141 134
-28.904 -46.620 -5.076 159 141 131
-29.082 -46.591 -5.059 155 137 125
-29.259 -46.559 -5.042 147 129 117
-29.434 -46.523 -5.026 144 126 114
-29.608 -46.482 -5.010 144 126 114
-29.781 -46.437 -4.993 152 134 122
-29.952 -46.388 -4.977 146 129 121
-30.122 -46.336 -4.962 150 133 125
-30.290 -46.282 -4.948 143 126 118
-30.457 -46.223 -4.935 146 129 121
-30.621 -46.160 -4.921 140 123 115
-30.784 -46.093 -4.906 156 139 131
-30.944 -46.021 -4.890 137 120 112
-31.102 -45.945 -4.875 146 129 121
-31.258 -45.866 -4.860 138 121 113
-31.412 -45.784 -4.846 124 107 99
-31.563 -45.698 -4.831 132 115 107
-31.712 -45.608 -4.816 121 104 96
-31.858 -45.515 -4.801 129 111 101
-32.002 -45.419 -4.787 130 111 104
-32.143 -45.319 -4.772 127 110 102
-32.280 -45.214 -4.755 132 117 110
-32.414 -45.107 -4.739 138 128 118
-32.545 -44.996 -4.722 140 130 120
-32.674 -44.884 -4.707 151 141 131
-32.803 -44.773 -4.698 163 153 143
-32.924 -44.653 -4.680 125 116 109
-33.043 -44.531 -4.664 87 78 71
-33.158 -44.406 -4.647 92 83 76
-33.266 -44.276 -4.626 105 96 89
-33.376 -44.147 -4.611 80 77 70
-33.492 -44.027 -4.610 56 51 45
-33.630 -43.926 -4.642 34 25 18
-33.810 -43.859 -4.729 55 41 38
-34.006 -43.799 -4.836 63 48 41
-34.224 -43.749 -4.971 50 31 24
-34.471 -43.712 -5.140 115 86 68
-34.627 -43.600 -5.198 211 167 130
-34.736 -43.454 -5.206 218 172 123
-34.834 -43.299 -5.204 218 175 124
-34.925 -43.141 -5.198 221 178 127
-35.012 -42.981 -5.193 214 171 120
-35.096 -42.819 -5.189 213 169 120
-35.175 -42.655 -5.184 209 165 116
-35.251 -42.489 -5.179 209 165 116
-35.324 -42.322 -5.176 209 165 116
-35.392 -42.153 -5.172 207 165 115
-35.454 -41.982 -5.166 211 169 119
-35.511 -41.810 -5.160 213 171 121
-35.562 -41.635 -5.152 215 173 123
-35.604 -41.458 -5.138 213 176 131
-35.641 -41.281 -5.125 224 172 122
-35.588 -41.081 -5.026 35 17 3
-35.570 -40.895 -4.968 14 19 23
-35.689 -40.738 -5.049 41 32 27
-35.826 -40.581 -5.151 86 50 26
-35.895 -40.408 -5.191 205 159 110
-35.925 -40.227 -5.196 204 156 108
-35.941 -40.046 -5.192 207 156 111
-35.952 -39.864 -5.188 202 151 106
-35.961 -39.682 -5.185 202 151 106
-35.963 -39.499 -5.181 201 150 105
-35.958 -39.317 -5.174 205 152 108
-35.948 -39.136 -5.166 200 147 103
-35.932 -38.954 -5.157 199 146 102
-35.911 -38.774 -5.148 199 146 102
-35.889 -38.594 -5.142 210 156 109
-35.862 -38.415 -5.135 206 152 105
-35.835 -38.236 -5.132 209 157 110
-35.800 -38.059 -5.126 210 159 114
-35.758 -37.883 -5.117 202 158 119
-35.689 -37.713 -5.086 43 21 10
-35.691 -37.528 -5.129 61 36 29
-35.711 -37.334 -5.196 194 155 124
-35.674 -37.155 -5.209 214 169 136
-35.618 -36.981 -5.209 207 162 129
-35.557 -36.809 -5.207 192 147 114
-35.495 -36.637 -5.208 173 128 95
-35.426 -36.467 -5.208 150 107 72
-35.353 -36.300 -5.206 151 111 76
-35.273 -36.135 -5.203 147 106 74
-35.189 -35.973 -5.199 155 114 84
-35.103 -35.812 -5.196 164 123 93
-35.011 -35.655 -5.191 167 126 94
-34.915 -35.499 -5.187 176 135 103
-34.815 -35.347 -5.182 171 130 98
-34.714 -35.195 -5.180 176 133 101
-34.607 -35.048 -5.176 181 137 102
-34.496 -34.904 -5.170 164 127 98
-34.379 -34.765 -5.161 26 8 0
-34.269 -34.620 -5.166 68 40 26
-34.157 -34.476 -5.173 117 82 62
-34.035 -34.342 -5.171 113 75 52
-33.909 -34.211 -5.167 125 85 60
-33.781 -34.081 -5.166 167 120 94
-33.646 -33.960 -5.159 116 71 42
-33.509 -33.841 -5.153 128 83 52
-33.370 -33.724 -5.149 160 110 77
-33.225 -33.615 -5.139 139 81 44
-33.171 -33.390 -5.276 158 132 109
-33.216 -33.019 -5.589 35 15 6
-32.834 -33.229 -5.207 104 62 37
-32.667 -33.148 -5.180 99 53 20
-32.542 -33.007 -5.229 96 74 61
-32.390 -32.903 -5.237 190 150 124
