ply
format ascii 1.0
element vertex 1532
property float x
property float y
property float z
property uchar red
property uchar green
property uchar blue
end_header
-0.159 -23.907 -3.910 106 106 106
-0.305 -23.997 -3.899 101 101 101
-0.454 -24.082 -3.887 95 95 93
-0.604 -24.162 -3.875 90 90 88
-0.756 -24.240 -3.864 84 84 82
-0.909 -24.313 -3.852 78 78 76
-1.063 -24.384 -3.841 75 74 70
-1.219 -24.450 -3.830 72 71 67
-1.377 -24.510 -3.817 78 77 73
-1.536 -24.568 -3.806 77 76 72
-1.696 -24.620 -3.793 74 73 69
-1.856 -24.669 -3.781 74 73 71
-2.018 -24.713 -3.768 76 75 73
-2.181 -24.753 -3.755 74 73 71
-2.344 -24.790 -3.743 78 76 77
-2.507 -24.822 -3.731 76 74 75
-2.671 -24.850 -3.718 73 71 72
-2.835 -24.876 -3.707 75 73 74
-2.999 -24.896 -3.696 79 79 77
-3.163 -24.915 -3.686 81 81 79
-3.327 -24.929 -3.675 81 81 79
-3.491 -24.939 -3.665 80 80 78
-3.656 -24.944 -3.654 87 83 82
-3.820 -24.943 -3.641 84 80 79
-3.983 -24.940 -3.630 86 82 81
-4.146 -24.935 -3.620 86 82 81
-4.309 -24.925 -3.610 81 80 78
-4.471 -24.911 -3.601 82 82 80
-4.632 -24.895 -3.592 78 78 76
-4.793 -24.872 -3.581 82 82 80
-4.952 -24.848 -3.572 86 86 86
-5.111 -24.819 -3.562 82 82 82
-5.269 -24.785 -3.552 76 76 76
-5.426 -24.748 -3.542 81 81 81
-5.581 -24.707 -3.532 80 80 80
-5.735 -24.663 -3.522 79 79 81
-5.887 -24.614 -3.512 80 80 82
-6.038 -24.562 -3.502 83 83 85
-6.188 -24.507 -3.493 84 84 86
-6.336 -24.449 -3.484 86 85 90
-6.483 -24.388 -3.475 86 85 90
-6.627 -24.323 -3.466 84 83 88
-6.770 -24.254 -3.457 88 86 87
-6.911 -24.182 -3.447 92 90 91
-7.049 -24.107 -3.438 93 91 92
-7.186 -24.028 -3.429 96 94 95
-7.320 -23.946 -3.420 89 89 91
-7.452 -23.861 -3.411 80 79 84
-7.581 -23.771 -3.400 77 76 81
-7.709 -23.681 -3.392 80 79 84
-7.833 -23.587 -3.383 81 80 85
-7.956 -23.491 -3.374 79 78 84
-8.075 -23.390 -3.364 80 79 85
-8.192 -23.287 -3.355 80 79 85
-8.305 -23.182 -3.345 83 82 87
-8.415 -23.073 -3.334 82 81 86
-8.523 -22.962 -3.324 79 78 83
-8.627 -22.848 -3.314 78 77 82
-8.729 -22.733 -3.304 76 75 80
-8.828 -22.615 -3.294 76 75 80
-8.923 -22.494 -3.284 75 74 79
-9.016 -22.372 -3.274 75 74 79
-9.106 -22.249 -3.265 75 76 78
-9.192 -22.123 -3.256 75 76 78
-9.276 -21.996 -3.247 76 77 79
-9.355 -21.866 -3.236 77 78 80
-9.430 -21.734 -3.225 80 81 83
-9.502 -21.600 -3.215 81 82 84
-9.570 -21.466 -3.205 81 81 83
-9.636 -21.330 -3.195 83 81 84
-9.698 -21.193 -3.184 84 82 93
-9.756 -21.054 -3.174 80 78 92
-9.812 -20.915 -3.166 81 79 93
-9.867 -20.776 -3.158 85 83 97
-9.918 -20.635 -3.151 89 89 87
-9.965 -20.494 -3.143 92 93 85
-10.005 -20.350 -3.133 101 102 94
-10.043 -20.206 -3.123 108 109 101
-10.076 -20.062 -3.114 110 111 106
-10.105 -19.916 -3.103 112 112 110
-10.130 -19.770 -3.092 114 114 112
-10.151 -19.624 -3.080 110 110 108
-10.170 -19.478 -3.070 111 112 106
-10.186 -19.332 -3.061 112 113 107
-10.199 -19.186 -3.052 112 113 107
-10.207 -19.040 -3.042 112 113 107
-10.211 -18.894 -3.032 116 113 106
-10.212 -18.748 -3.022 114 111 102
-10.210 -18.602 -3.013 114 111 104
-10.207 -18.457 -3.005 112 111 106
-10.199 -18.312 -2.998 114 113 108
-10.185 -18.168 -2.987 114 113 108
-10.166 -18.024 -2.976 113 112 107
-10.145 -17.882 -2.965 113 112 107
-10.123 -17.740 -2.957 116 113 108
-10.096 -17.598 -2.948 115 112 107
-10.065 -17.458 -2.937 115 112 107
-10.035 -17.318 -2.931 115 112 107
-10.000 -17.180 -2.923 115 115 107
-9.963 -17.042 -2.917 113 113 105
-9.923 -16.906 -2.910 111 111 103
-9.880 -16.770 -2.904 111 111 103
-9.832 -16.637 -2.897 112 112 104
-9.779 -16.505 -2.888 112 112 104
-9.725 -16.374 -2.881 111 111 103
-9.668 -16.245 -2.874 112 112 104
-9.611 -16.116 -2.869 115 110 106
-9.539 -15.994 -2.854 113 110 101
-9.475 -15.869 -2.849 116 113 104
-9.418 -15.740 -2.853 110 109 105
-14.304 -12.970 -7.616 14 17 24
-14.244 -12.684 -7.688 14 18 27
-14.134 -12.423 -7.719 13 17 26
-14.013 -12.167 -7.745 13 17 26
-13.882 -11.916 -7.768 12 16 25
-13.731 -11.677 -7.777 12 16 25
-13.570 -11.444 -7.783 7 11 20
-13.406 -11.213 -7.790 15 19 28
-13.221 -10.998 -7.782 61 65 74
-13.084 -10.742 -7.833 12 16 25
-12.920 -10.507 -7.860 13 17 26
-12.756 -10.270 -7.896 14 18 27
-12.566 -10.055 -7.908 13 20 28
-12.368 -9.847 -7.917 13 20 28
-12.162 -9.648 -7.921 13 20 28
-11.938 -9.468 -7.910 14 21 29
-11.702 -9.304 -7.888 14 22 24
-7.671 -14.003 -2.637 103 105 102
-7.531 -13.968 -2.589 112 108 99
-7.407 -13.913 -2.565 112 107 101
-7.298 -13.838 -2.565 114 106 103
-7.186 -13.769 -2.563 113 108 104
-7.071 -13.704 -2.559 112 109 102
-6.952 -13.646 -2.550 110 107 100
-8.688 -10.120 -5.881 90 93 98
-9.332 -8.332 -7.480 19 28 43
-9.115 -8.151 -7.537 11 24 41
-8.878 -8.003 -7.567 21 33 47
-8.636 -7.864 -7.595 30 42 56
-8.386 -7.743 -7.611 29 42 58
-8.131 -7.628 -7.627 31 44 63
-7.874 -7.521 -7.642 29 44 67
-7.611 -7.426 -7.652 32 48 71
-7.345 -7.342 -7.658 32 47 66
-7.064 -7.312 -7.621 17 29 43
-6.789 -7.265 -7.606 14 23 32
-6.518 -7.206 -7.607 20 32 48
-6.237 -7.199 -7.569 39 48 57
-5.097 -12.998 -2.558 112 114 111
-4.961 -13.021 -2.523 117 112 106
-4.828 -13.042 -2.493 109 105 96
-4.697 -13.044 -2.482 107 103 94
-4.578 -12.841 -2.648 112 108 99
-4.437 -13.093 -2.429 115 108 100
-4.309 -9.721 -5.534 49 58 57
-4.098 -9.744 -5.516 51 60 59
-3.889 -9.769 -5.502 50 58 60
-3.681 -9.796 -5.489 53 61 64
-3.473 -9.828 -5.477 55 63 65
-3.266 -9.862 -5.467 55 63 65
-3.062 -9.905 -5.454 50 58 60
-2.858 -9.952 -5.441 50 58 60
-2.656 -10.003 -5.429 54 63 62
-2.456 -10.059 -5.418 53 61 63
-2.257 -10.120 -5.406 54 62 65
-2.060 -10.185 -5.395 54 62 65
-1.865 -10.256 -5.383 53 60 66
-1.673 -10.333 -5.370 53 60 66
-1.482 -10.411 -5.359 55 62 68
-1.294 -10.496 -5.347 55 62 68
-1.109 -10.587 -5.333 55 63 66
-0.928 -10.684 -5.317 55 63 66
-0.748 -10.785 -5.303 57 65 68
-0.571 -10.886 -5.291 56 64 67
-0.395 -10.991 -5.280 55 63 66
-0.223 -11.100 -5.269 55 63 66
-0.054 -11.214 -5.257 57 65 68
0.112 -11.331 -5.247 57 65 68
0.276 -11.451 -5.237 58 63 67
0.436 -11.575 -5.226 58 63 67
0.592 -11.705 -5.214 59 64 68
0.744 -11.838 -5.202 58 63 67
0.893 -11.974 -5.190 54 62 65
1.038 -12.114 -5.179 54 62 65
1.180 -12.256 -5.168 56 64 67
1.316 -12.404 -5.154 59 67 70
1.448 -12.556 -5.139 61 69 72
1.575 -12.710 -5.125 56 64 67
1.700 -12.866 -5.112 57 65 68
1.822 -13.024 -5.100 57 65 68
1.940 -13.184 -5.090 56 64 67
2.053 -13.348 -5.077 57 65 68
2.159 -13.516 -5.061 57 65 68
2.260 -13.686 -5.046 57 65 68
2.359 -13.857 -5.032 56 64 67
2.453 -14.030 -5.019 56 64 67
2.542 -14.206 -5.004 57 65 68
2.625 -14.384 -4.989 56 64 67
2.705 -14.563 -4.974 58 66 69
2.784 -14.742 -4.964 59 67 70
2.854 -14.924 -4.949 57 65 68
2.923 -15.107 -4.937 57 65 68
2.984 -15.291 -4.923 55 64 69
3.042 -15.477 -4.909 57 66 71
3.093 -15.664 -4.894 57 66 71
3.144 -15.850 -4.883 57 66 71
3.188 -16.038 -4.870 58 65 71
3.227 -16.227 -4.857 61 66 72
3.262 -16.416 -4.845 64 69 75
3.293 -16.605 -4.832 62 67 73
3.321 -16.795 -4.822 63 68 74
3.343 -16.984 -4.810 63 68 74
3.360 -17.175 -4.799 61 66 72
3.372 -17.365 -4.787 61 66 72
3.380 -17.555 -4.775 60 67 73
3.383 -17.745 -4.764 60 67 75
3.381 -17.934 -4.752 66 70 79
3.372 -18.124 -4.738 65 68 77
3.360 -18.312 -4.725 61 68 74
3.343 -18.500 -4.712 61 68 74
3.324 -18.687 -4.702 60 69 74
3.300 -18.873 -4.691 60 69 74
3.271 -19.059 -4.680 63 70 76
3.238 -19.243 -4.669 64 69 75
3.201 -19.426 -4.658 65 70 76
3.159 -19.608 -4.647 65 70 76
3.112 -19.788 -4.635 66 71 75
3.060 -19.967 -4.623 64 69 73
3.004 -20.144 -4.611 65 70 74
2.943 -20.319 -4.598 65 70 74
2.878 -20.492 -4.586 66 70 73
2.809 -20.663 -4.573 69 69 77
2.735 -20.832 -4.560 70 70 80
2.656 -20.999 -4.547 72 73 78
2.573 -21.163 -4.533 69 72 77
2.488 -21.325 -4.520 69 72 77
2.400 -21.485 -4.509 70 73 78
2.309 -21.643 -4.498 70 73 78
2.215 -21.799 -4.487 69 72 77
2.117 -21.952 -4.477 69 72 77
2.015 -22.103 -4.466 72 75 80
1.911 -22.251 -4.456 72 75 80
1.804 -22.396 -4.447 74 77 82
1.693 -22.539 -4.438 74 77 82
1.579 -22.678 -4.428 76 79 84
1.459 -22.814 -4.417 76 79 84
1.337 -22.945 -4.405 75 78 85
1.211 -23.073 -4.392 74 77 84
1.082 -23.198 -4.380 74 77 82
0.950 -23.319 -4.368 76 79 84
0.816 -23.437 -4.356 75 79 82
0.680 -23.552 -4.344 77 78 82
0.540 -23.662 -4.332 78 79 83
0.398 -23.769 -4.319 78 79 83
0.253 -23.871 -4.306 77 78 80
0.106 -23.969 -4.293 79 80 82
-0.043 -24.063 -4.279 78 79 81
-0.194 -24.155 -4.267 78 79 81
-0.347 -24.241 -4.253 77 78 82
-0.502 -24.323 -4.240 76 77 82
-0.658 -24.403 -4.227 76 77 82
-0.815 -24.479 -4.216 76 77 82
-0.974 -24.552 -4.205 76 77 82
-1.134 -24.619 -4.192 77 78 83
-1.296 -24.682 -4.180 76 77 82
-1.459 -24.741 -4.167 77 78 83
-1.623 -24.796 -4.154 77 78 83
-1.788 -24.847 -4.142 75 76 81
-1.954 -24.893 -4.129 76 77 82
-2.121 -24.934 -4.116 75 76 81
-2.289 -24.971 -4.102 77 78 83
-2.457 -25.004 -4.089 76 76 84
-2.625 -25.033 -4.076 76 76 84
-2.794 -25.060 -4.065 76 76 84
-2.962 -25.081 -4.052 78 79 84
-3.131 -25.099 -4.041 78 79 84
-3.300 -25.114 -4.030 75 76 81
-3.468 -25.125 -4.020 75 76 81
-3.637 -25.133 -4.010 75 78 85
-3.806 -25.134 -3.999 75 78 85
-3.974 -25.130 -3.986 74 77 84
-4.142 -25.124 -3.976 74 77 84
-4.309 -25.115 -3.966 76 79 84
-4.475 -25.102 -3.957 73 74 79
-4.642 -25.086 -3.948 78 79 84
-4.807 -25.064 -3.937 77 78 83
-4.971 -25.038 -3.927 78 78 86
-5.135 -25.010 -3.919 77 77 85
-5.297 -24.977 -3.909 75 75 83
-5.459 -24.940 -3.899 75 75 83
-5.619 -24.899 -3.889 74 77 82
-5.778 -24.853 -3.879 74 77 82
-5.935 -24.804 -3.869 74 77 82
-6.091 -24.751 -3.859 77 80 85
-6.245 -24.695 -3.849 84 84 92
-6.397 -24.635 -3.839 83 83 91
-6.548 -24.571 -3.830 82 82 90
-6.697 -24.504 -3.820 83 83 91
-6.844 -24.434 -3.811 84 85 89
-6.989 -24.360 -3.801 82 81 86
-7.133 -24.283 -3.793 89 88 93
-7.274 -24.203 -3.784 87 86 91
-7.413 -24.119 -3.774 76 79 84
-7.550 -24.033 -3.766 76 79 84
-7.684 -23.944 -3.758 75 78 83
-7.817 -23.852 -3.750 75 78 83
-7.945 -23.754 -3.740 77 78 83
-8.071 -23.654 -3.730 75 76 81
-8.194 -23.551 -3.720 75 76 81
-8.314 -23.445 -3.709 77 78 83
-8.432 -23.336 -3.700 76 77 82
-8.546 -23.225 -3.690 78 79 84
-8.658 -23.111 -3.679 78 79 84
-8.767 -22.994 -3.670 77 78 83
-8.873 -22.876 -3.660 77 78 83
-8.975 -22.755 -3.650 78 79 84
-9.073 -22.630 -3.639 78 79 84
-9.168 -22.504 -3.628 78 79 84
-9.260 -22.376 -3.617 77 78 83
-9.349 -22.245 -3.606 78 79 84
-9.434 -22.113 -3.595 77 78 83
-9.515 -21.979 -3.584 79 80 85
-9.592 -21.842 -3.572 77 78 83
-9.667 -21.705 -3.562 77 78 83
-9.738 -21.566 -3.551 78 79 84
-9.806 -21.426 -3.541 78 78 86
-9.870 -21.285 -3.530 78 79 81
-9.930 -21.142 -3.519 78 80 79
-9.987 -20.998 -3.509 80 82 81
-10.042 -20.854 -3.500 80 82 81
-10.093 -20.708 -3.491 82 83 85
-10.140 -20.561 -3.481 83 83 85
-10.182 -20.414 -3.470 83 83 85
-10.220 -20.265 -3.460 83 83 85
-10.255 -20.116 -3.449 85 85 87
-10.285 -19.966 -3.438 86 86 86
-10.311 -19.816 -3.427 85 85 85
-10.334 -19.665 -3.416 92 92 92
-10.354 -19.515 -3.405 101 102 97
-10.373 -19.364 -3.398 106 107 102
-10.386 -19.214 -3.388 112 113 108
-10.394 -19.063 -3.377 113 114 109
-10.400 -18.912 -3.368 111 111 103
-10.402 -18.762 -3.358 111 111 103
-10.400 -18.611 -3.348 116 116 108
-10.396 -18.462 -3.340 112 114 103
-10.388 -18.312 -3.331 113 113 103
-10.373 -18.163 -3.320 113 113 105
-10.355 -18.015 -3.309 116 116 108
-10.335 -17.868 -3.300 114 114 106
-10.315 -17.721 -3.293 114 111 106
-10.290 -17.574 -3.286 117 114 109
-10.261 -17.429 -3.277 112 111 106
-10.229 -17.285 -3.269 112 113 107
-10.194 -17.142 -3.262 114 114 106
-10.157 -16.999 -3.257 113 113 105
-10.116 -16.857 -3.250 113 113 105
-10.071 -16.717 -3.243 113 113 105
-10.022 -16.579 -3.236 115 112 105
-9.966 -16.443 -3.225 116 111 105
-9.909 -16.308 -3.216 115 110 104
-9.848 -16.175 -3.207 115 110 104
-9.786 -16.043 -3.199 114 109 105
-9.712 -15.917 -3.183 114 110 101
-9.640 -15.791 -3.172 114 110 101
-9.534 -15.682 -3.130 118 113 110
-14.174 -13.039 -7.809 14 17 24
-14.118 -12.756 -7.886 15 19 28
-14.016 -12.494 -7.925 13 17 26
-13.901 -12.238 -7.957 13 17 26
-13.773 -11.989 -7.982 11 18 24
-13.613 -11.759 -7.980 11 20 29
-13.457 -11.527 -7.988 12 19 29
-10.899 -13.169 -5.331 94 96 95
-9.353 -14.173 -3.722 110 109 105
-12.974 -10.837 -8.036 19 22 27
-12.817 -10.600 -8.071 13 20 30
-12.661 -10.360 -8.114 12 21 28
-12.476 -10.145 -8.129 14 21 27
-12.282 -9.937 -8.141 13 20 28
-12.081 -9.737 -8.150 14 21 29
-11.864 -9.554 -8.144 17 24 32
-11.636 -9.384 -8.129 21 25 26
-7.793 -13.847 -2.967 102 101 96
-7.647 -13.812 -2.914 113 106 98
-7.527 -13.743 -2.901 111 106 100
-7.412 -13.668 -2.898 110 107 100
-7.298 -13.591 -2.900 110 107 100
-7.175 -13.530 -2.889 107 107 99
-7.062 -13.453 -2.898 107 107 99
-6.967 -13.338 -2.946 112 114 103
-9.264 -8.468 -7.665 17 24 30
-9.057 -8.274 -7.739 18 30 52
-8.824 -8.125 -7.772 17 29 45
-8.588 -7.982 -7.806 20 32 48
-8.342 -7.857 -7.828 17 28 46
-8.091 -7.741 -7.847 24 37 54
-7.836 -7.635 -7.862 27 42 61
-7.577 -7.538 -7.874 27 44 60
-7.313 -7.455 -7.879 29 46 64
-7.034 -7.432 -7.837 18 34 49
-6.761 -7.391 -7.816 14 24 34
-6.492 -7.337 -7.814 24 33 48
-6.209 -7.360 -7.748 35 41 41
-5.121 -12.834 -2.857 111 106 100
-4.981 -12.859 -2.819 115 106 101
-4.844 -12.878 -2.789 116 109 101
-4.711 -12.863 -2.792 113 106 100
-4.577 -12.853 -2.793 114 107 99
-4.440 -12.952 -2.702 111 104 94
-4.309 -9.564 -5.929 49 58 57
-4.094 -9.583 -5.914 51 60 59
-3.881 -9.607 -5.899 50 58 60
-3.669 -9.637 -5.884 52 60 63
-3.458 -9.669 -5.871 54 62 64
-3.247 -9.704 -5.861 54 62 64
-3.038 -9.748 -5.847 51 59 61
-2.831 -9.795 -5.835 48 56 58
-2.625 -9.846 -5.824 49 58 57
-2.420 -9.900 -5.814 51 59 61
-2.216 -9.959 -5.805 53 61 64
-2.015 -10.024 -5.794 53 60 66
-1.816 -10.095 -5.782 54 62 65
-1.619 -10.171 -5.771 54 62 65
-1.425 -10.252 -5.759 54 62 65
-1.233 -10.338 -5.746 54 62 65
-1.044 -10.431 -5.731 54 62 65
-0.859 -10.530 -5.715 54 62 65
-0.676 -10.631 -5.702 57 65 68
-0.494 -10.734 -5.690 56 64 67
-0.315 -10.840 -5.679 55 63 66
-0.139 -10.952 -5.667 57 65 68
0.034 -11.068 -5.655 56 64 67
0.204 -11.186 -5.644 56 64 67
0.371 -11.308 -5.635 58 63 67
0.534 -11.435 -5.623 58 63 67
0.694 -11.567 -5.611 59 64 68
0.850 -11.702 -5.599 60 65 69
1.002 -11.841 -5.587 57 65 68
1.150 -11.983 -5.575 57 65 68
1.296 -12.128 -5.564 57 65 68
1.436 -12.278 -5.551 57 65 68
1.571 -12.432 -5.537 57 65 68
1.702 -12.589 -5.522 56 64 67
1.830 -12.748 -5.509 57 65 68
1.955 -12.909 -5.498 57 65 68
2.076 -13.072 -5.486 55 63 66
2.191 -13.240 -5.473 56 64 67
2.301 -13.410 -5.459 57 65 68
2.406 -13.583 -5.443 57 65 68
2.505 -13.759 -5.428 58 66 69
2.602 -13.936 -5.414 58 66 69
2.692 -14.116 -5.398 58 66 69
2.778 -14.297 -5.382 57 65 68
2.860 -14.481 -5.367 58 66 69
2.942 -14.662 -5.357 59 67 70
3.013 -14.849 -5.341 57 65 68
3.084 -15.035 -5.329 57 65 68
3.148 -15.223 -5.315 55 62 68
3.205 -15.414 -5.299 57 64 70
3.260 -15.604 -5.286 57 64 70
3.311 -15.795 -5.273 57 64 70
3.357 -15.987 -5.260 59 64 70
3.397 -16.180 -5.247 60 65 71
3.432 -16.373 -5.233 60 65 71
3.464 -16.567 -5.220 62 67 73
3.492 -16.760 -5.209 63 68 74
3.515 -16.955 -5.197 63 68 74
3.532 -17.149 -5.184 61 66 72
3.544 -17.344 -5.171 61 66 72
3.552 -17.538 -5.159 59 66 72
3.556 -17.732 -5.147 59 66 72
3.554 -17.926 -5.135 62 67 73
3.546 -18.119 -5.122 66 69 76
3.534 -18.312 -5.108 64 69 75
3.517 -18.504 -5.095 64 69 75
3.499 -18.696 -5.085 62 69 75
3.476 -18.886 -5.075 61 70 75
3.448 -19.076 -5.064 64 71 77
3.414 -19.265 -5.053 65 70 76
3.376 -19.452 -5.041 65 70 76
3.334 -19.638 -5.030 65 70 76
3.287 -19.823 -5.019 65 70 74
3.234 -20.006 -5.006 66 71 75
3.177 -20.187 -4.994 66 71 75
3.114 -20.366 -4.980 66 71 75
3.048 -20.544 -4.967 66 70 73
2.977 -20.719 -4.955 67 70 77
2.903 -20.892 -4.942 68 71 80
2.823 -21.063 -4.928 70 73 78
2.743 -21.233 -4.918 71 74 79
2.656 -21.400 -4.905 71 74 79
2.566 -21.564 -4.893 71 74 79
2.474 -21.726 -4.882 71 74 79
2.374 -21.884 -4.868 71 74 79
2.273 -22.041 -4.856 71 74 79
2.169 -22.195 -4.845 71 74 79
2.062 -22.347 -4.835 71 74 79
1.952 -22.496 -4.825 71 74 79
1.838 -22.641 -4.814 74 77 82
1.720 -22.783 -4.803 76 79 84
1.598 -22.922 -4.791 74 77 82
1.473 -23.057 -4.779 74 77 82
1.345 -23.189 -4.767 73 76 81
1.213 -23.317 -4.754 73 76 81
1.078 -23.440 -4.741 74 77 82
0.939 -23.560 -4.727 74 77 82
0.800 -23.678 -4.715 74 77 82
0.658 -23.792 -4.703 75 78 83
0.512 -23.901 -4.690 75 78 83
0.365 -24.007 -4.677 76 79 84
0.215 -24.108 -4.664 76 79 84
0.062 -24.206 -4.650 74 77 82
-0.092 -24.299 -4.637 74 77 82
-0.249 -24.388 -4.623 74 77 82
-0.407 -24.474 -4.610 73 76 81
-0.567 -24.556 -4.597 73 76 81
-0.728 -24.634 -4.585 73 76 81
-0.890 -24.708 -4.573 73 76 81
-1.054 -24.777 -4.560 74 77 82
-1.220 -24.842 -4.547 74 77 82
-1.387 -24.903 -4.534 75 78 83
-1.555 -24.959 -4.521 75 78 83
-1.724 -25.012 -4.508 74 77 82
-1.895 -25.059 -4.495 75 78 83
-2.066 -25.101 -4.480 74 77 82
-2.238 -25.139 -4.466 73 76 81
-2.410 -25.174 -4.453 73 76 81
-2.582 -25.205 -4.440 73 76 81
-2.755 -25.233 -4.429 73 76 81
-2.927 -25.256 -4.417 75 78 83
-3.101 -25.275 -4.405 75 78 83
-3.274 -25.290 -4.393 73 76 81
-3.447 -25.300 -4.382 73 76 81
-3.620 -25.309 -4.372 73 76 83
-3.792 -25.312 -4.362 73 76 83
-3.965 -25.307 -4.348 72 75 82
-4.137 -25.300 -4.336 72 75 82
-4.309 -25.291 -4.325 74 77 82
-4.480 -25.279 -4.317 69 72 77
-4.650 -25.265 -4.309 75 78 83
-4.820 -25.243 -4.299 74 77 82
-4.989 -25.218 -4.290 76 77 82
-5.157 -25.189 -4.280 75 76 81
-5.324 -25.156 -4.271 74 75 80
-5.490 -25.120 -4.262 74 75 80
-5.655 -25.078 -4.252 71 74 79
-5.818 -25.032 -4.242 71 74 79
-5.979 -24.981 -4.231 74 77 82
-6.139 -24.926 -4.220 76 79 84
-6.298 -24.869 -4.211 82 83 88
-6.455 -24.808 -4.201 82 83 88
-6.610 -24.743 -4.191 80 81 86
-6.763 -24.675 -4.181 80 81 86
-6.915 -24.604 -4.172 77 78 82
-7.064 -24.529 -4.163 77 78 82
-7.212 -24.451 -4.155 77 78 82
-7.358 -24.370 -4.146 77 78 82
-7.501 -24.285 -4.138 74 77 82
-7.642 -24.197 -4.130 74 77 82
-7.782 -24.107 -4.123 72 75 80
-7.919 -24.013 -4.116 72 75 80
-8.053 -23.915 -4.108 73 74 79
-8.183 -23.814 -4.099 74 75 80
-8.311 -23.709 -4.089 73 74 79
-8.435 -23.599 -4.079 76 77 82
-8.555 -23.486 -4.067 84 85 90
-8.673 -23.371 -4.055 78 79 84
-8.787 -23.253 -4.044 77 78 83
-8.898 -23.132 -4.032 76 77 82
-9.006 -23.009 -4.021 76 77 82
-9.110 -22.884 -4.009 77 78 83
-9.211 -22.755 -3.996 77 78 83
-9.309 -22.625 -3.985 77 78 83
-9.404 -22.493 -3.974 77 78 83
-9.495 -22.360 -3.963 78 79 84
-9.584 -22.224 -3.952 79 80 85
-9.668 -22.086 -3.941 78 79 84
-9.748 -21.947 -3.930 76 77 81
-9.826 -21.806 -3.919 76 77 81
-9.900 -21.663 -3.908 78 79 83
-9.970 -21.519 -3.897 78 79 83
-10.034 -21.372 -3.884 77 78 80
-10.095 -21.225 -3.871 77 78 80
-10.152 -21.076 -3.859 77 78 80
-10.207 -20.927 -3.848 77 78 80
-10.259 -20.777 -3.838 81 82 84
-10.307 -20.626 -3.827 81 82 84
-10.350 -20.474 -3.815 82 83 85
-10.389 -20.321 -3.804 82 83 85
-10.424 -20.167 -3.792 83 84 86
-10.455 -20.013 -3.780 81 82 84
-10.483 -19.859 -3.769 82 83 85
-10.508 -19.704 -3.759 82 83 85
-10.529 -19.550 -3.748 85 85 87
-10.546 -19.394 -3.738 84 84 86
-10.559 -19.239 -3.726 81 81 83
-10.568 -19.084 -3.716 86 86 88
-10.574 -18.929 -3.706 91 92 87
-10.575 -18.774 -3.695 96 97 92
-10.572 -18.620 -3.684 103 104 99
-10.567 -18.466 -3.674 107 108 103
-10.559 -18.312 -3.665 111 110 105
-10.547 -18.159 -3.656 112 111 106
-10.532 -18.006 -3.647 109 108 103
-10.516 -17.854 -3.641 111 110 105
-10.494 -17.703 -3.633 113 110 105
-10.470 -17.552 -3.626 111 108 103
-10.440 -17.403 -3.618 111 110 105
-10.407 -17.254 -3.610 111 112 106
-10.372 -17.106 -3.603 114 114 106
-10.335 -16.959 -3.598 113 113 105
-10.292 -16.813 -3.590 113 113 105
-10.244 -16.670 -3.582 113 113 105
-10.192 -16.527 -3.573 116 111 105
-10.134 -16.388 -3.560 116 111 105
-10.073 -16.250 -3.548 116 111 105
-10.007 -16.114 -3.535 116 111 105
-9.941 -15.979 -3.526 115 110 106
-9.865 -15.849 -3.508 115 111 102
-9.789 -15.720 -3.494 115 111 102
-9.724 -15.586 -3.495 110 105 102
-14.043 -13.109 -8.004 19 19 27
-13.987 -12.829 -8.082 14 18 27
-13.889 -12.570 -8.123 13 17 26
-13.779 -12.315 -8.160 13 17 26
-13.652 -12.069 -8.185 11 18 24
-13.487 -11.848 -8.175 11 20 29
-13.337 -11.616 -8.187 17 24 32
-9.083 -14.587 -3.488 104 103 99
-8.961 -14.494 -3.455 112 107 101
-12.777 -11.007 -8.136 35 35 37
-12.717 -10.691 -8.286 12 21 30
-12.560 -10.456 -8.326 12 21 28
-12.383 -10.238 -8.350 12 19 25
-12.200 -10.024 -8.372 13 20 28
-12.002 -9.824 -8.383 14 21 29
-11.789 -9.640 -8.380 17 24 32
-11.561 -9.475 -8.362 22 26 27
-7.906 -13.703 -3.299 113 110 105
-7.760 -13.658 -3.252 113 106 98
-7.641 -13.580 -3.246 110 107 100
-7.523 -13.501 -3.244 108 105 98
-7.405 -13.422 -3.246 108 105 98
-7.280 -13.354 -3.239 108 105 98
-7.157 -13.283 -3.238 108 105 98
-7.030 -13.221 -3.232 106 106 94
-8.383 -10.217 -6.214 95 99 100
-8.994 -8.405 -7.933 25 33 52
-8.772 -8.244 -7.981 17 29 45
-8.539 -8.100 -8.018 18 30 46
-8.297 -7.974 -8.043 17 28 46
-8.050 -7.856 -8.065 18 31 48
-7.799 -7.748 -8.084 22 38 54
-7.542 -7.653 -8.096 23 40 56
-7.279 -7.578 -8.094 27 46 63
-7.004 -7.550 -8.055 24 41 57
-6.733 -7.517 -8.028 12 22 34
-6.465 -7.471 -8.019 26 34 47
-5.352 -12.299 -3.532 108 113 107
-5.144 -12.679 -3.162 110 105 99
-5.000 -12.708 -3.118 112 105 99
-4.861 -12.703 -3.109 104 98 84
-4.723 -12.699 -3.101 118 115 100
-4.585 -12.694 -3.098 130 127 110
-4.445 -12.746 -3.046 154 151 132
-4.309 -9.434 -6.315 48 57 56
-4.091 -9.451 -6.302 50 59 58
-3.875 -9.479 -6.283 51 59 61
-3.660 -9.515 -6.262 50 58 61
-3.445 -9.540 -6.256 52 60 63
-3.232 -9.578 -6.242 50 58 61
-3.020 -9.622 -6.228 49 57 60
-2.809 -9.671 -6.214 50 58 61
-2.602 -9.729 -6.196 52 61 60
-2.394 -9.786 -6.185 53 61 63
-2.188 -9.846 -6.174 56 64 67
-1.985 -9.914 -6.162 53 60 66
-1.783 -9.986 -6.149 51 59 62
-1.584 -10.063 -6.137 51 59 61
-1.387 -10.146 -6.123 51 59 61
-1.192 -10.233 -6.111 52 60 62
-1.001 -10.327 -6.095 52 60 63
-0.812 -10.424 -6.081 54 62 65
-0.626 -10.525 -6.068 55 63 66
-0.442 -10.630 -6.055 60 68 71
-0.261 -10.739 -6.042 57 65 68
-0.083 -10.852 -6.031 58 66 69
0.093 -10.968 -6.019 55 63 66
0.266 -11.087 -6.010 57 65 68
0.436 -11.211 -5.999 57 62 66
0.602 -11.339 -5.988 58 63 67
0.764 -11.472 -5.976 57 62 66
0.923 -11.609 -5.964 57 62 66
1.077 -11.749 -5.952 56 64 67
1.229 -11.893 -5.940 56 64 67
1.376 -12.040 -5.928 57 65 68
1.517 -12.193 -5.914 58 66 69
1.655 -12.349 -5.899 57 65 68
1.788 -12.508 -5.884 56 64 67
1.917 -12.669 -5.870 56 64 67
2.043 -12.833 -5.857 56 64 67
2.165 -12.999 -5.844 58 66 69
2.284 -13.167 -5.832 58 66 69
2.395 -13.340 -5.817 57 65 68
2.502 -13.515 -5.802 58 66 69
2.605 -13.693 -5.788 56 64 67
2.704 -13.871 -5.774 57 65 68
2.797 -14.053 -5.759 55 63 66
2.885 -14.237 -5.744 57 65 68
2.970 -14.422 -5.730 60 68 71
3.050 -14.608 -5.716 59 67 70
3.125 -14.796 -5.702 58 66 69
3.194 -14.986 -5.687 58 66 69
3.260 -15.177 -5.673 58 63 69
3.320 -15.370 -5.658 58 63 69
3.375 -15.563 -5.643 58 63 69
3.432 -15.755 -5.636 59 64 70
3.479 -15.950 -5.622 60 65 71
3.520 -16.146 -5.608 60 65 71
3.557 -16.342 -5.595 60 65 71
3.589 -16.539 -5.582 61 66 72
3.618 -16.735 -5.569 63 68 74
3.642 -16.933 -5.558 64 69 75
3.658 -17.130 -5.544 63 68 74
3.672 -17.328 -5.532 62 67 73
3.682 -17.525 -5.520 59 67 70
3.686 -17.722 -5.508 59 67 70
3.685 -17.919 -5.496 64 69 73
3.677 -18.116 -5.481 64 67 72
3.666 -18.312 -5.469 65 68 75
3.650 -18.508 -5.456 64 69 75
3.629 -18.702 -5.444 64 69 75
3.605 -18.896 -5.433 62 69 75
3.575 -19.089 -5.420 68 73 79
3.542 -19.280 -5.409 65 70 76
3.503 -19.471 -5.397 67 72 78
3.460 -19.660 -5.385 65 70 76
3.413 -19.848 -5.374 66 71 75
3.360 -20.034 -5.361 66 71 75
3.302 -20.218 -5.348 66 71 75
3.239 -20.401 -5.335 66 71 75
3.172 -20.581 -5.322 65 70 73
3.101 -20.760 -5.309 66 71 77
3.025 -20.936 -5.296 68 72 81
2.945 -21.110 -5.281 69 74 78
2.860 -21.282 -5.268 70 73 78
2.773 -21.451 -5.255 70 73 78
2.681 -21.618 -5.242 70 73 78
2.587 -21.783 -5.231 70 73 78
2.489 -21.946 -5.219 75 78 83
2.388 -22.106 -5.208 71 74 79
2.282 -22.263 -5.197 72 75 80
2.174 -22.417 -5.186 73 76 81
2.063 -22.570 -5.177 74 77 82
1.947 -22.718 -5.167 73 76 81
1.828 -22.864 -5.156 75 78 83
1.706 -23.006 -5.146 72 75 80
1.580 -23.145 -5.135 73 76 81
1.451 -23.280 -5.124 74 77 82
1.317 -23.411 -5.111 72 75 80
1.179 -23.537 -5.097 72 75 80
1.038 -23.659 -5.083 71 74 81
0.895 -23.778 -5.069 73 76 83
0.750 -23.893 -5.055 71 74 81
0.602 -24.005 -5.042 72 75 82
0.452 -24.113 -5.029 75 78 85
0.300 -24.217 -5.016 73 76 83
0.145 -24.318 -5.003 71 74 81
-0.011 -24.414 -4.990 72 75 82
-0.170 -24.506 -4.977 71 74 79
-0.331 -24.594 -4.964 72 75 80
-0.494 -24.677 -4.950 72 75 80
-0.659 -24.756 -4.936 71 74 79
-0.824 -24.831 -4.923 72 75 80
-0.992 -24.902 -4.910 72 75 80
-1.161 -24.968 -4.896 75 78 83
-1.331 -25.029 -4.882 73 76 81
-1.502 -25.088 -4.869 72 75 80
-1.674 -25.142 -4.856 71 74 79
-1.847 -25.191 -4.843 73 76 81
-2.023 -25.232 -4.825 72 75 80
-2.197 -25.272 -4.812 72 75 80
-2.373 -25.309 -4.799 72 75 80
-2.548 -25.342 -4.787 71 74 79
-2.723 -25.372 -4.777 72 75 80
-2.899 -25.398 -4.767 74 77 82
-3.076 -25.418 -4.755 73 76 81
-3.252 -25.435 -4.744 72 75 80
-3.429 -25.447 -4.733 71 74 79
-3.605 -25.457 -4.724 70 73 80
-3.781 -25.461 -4.714 71 74 81
-3.958 -25.459 -4.702 74 77 84
-4.133 -25.453 -4.690 71 74 81
-4.309 -25.444 -4.680 68 71 76
-4.484 -25.433 -4.672 70 73 78
-4.658 -25.419 -4.664 74 77 82
-4.831 -25.398 -4.655 71 74 79
-5.004 -25.372 -4.644 75 76 81
-5.176 -25.341 -4.634 75 76 81
-5.346 -25.308 -4.624 76 77 82
-5.516 -25.270 -4.615 76 77 82
-5.684 -25.228 -4.604 71 74 79
-5.851 -25.181 -4.594 73 76 81
-6.016 -25.130 -4.582 74 77 82
-6.180 -25.074 -4.572 76 79 84
-6.342 -25.016 -4.562 80 81 85
-6.505 -24.959 -4.556 81 82 86
-6.663 -24.893 -4.546 82 83 87
-6.820 -24.823 -4.536 80 81 85
-6.976 -24.750 -4.527 78 79 83
-7.127 -24.671 -4.515 78 79 83
-7.277 -24.589 -4.503 78 79 83
-7.427 -24.506 -4.495 76 77 81
-7.573 -24.419 -4.485 76 79 84
-7.718 -24.330 -4.477 75 78 83
-7.860 -24.237 -4.470 72 75 80
-8.000 -24.141 -4.462 72 75 80
-8.136 -24.040 -4.453 75 76 81
-8.269 -23.935 -4.442 75 76 81
-8.399 -23.827 -4.431 75 76 81
-8.525 -23.715 -4.419 75 76 81
-8.649 -23.601 -4.408 75 76 81
-8.770 -23.484 -4.397 77 78 83
-8.887 -23.363 -4.385 76 77 82
-9.001 -23.241 -4.374 76 77 82
-9.112 -23.115 -4.362 72 73 78
-9.219 -22.987 -4.350 75 76 81
-9.323 -22.856 -4.338 75 76 81
-9.423 -22.723 -4.325 75 76 81
-9.520 -22.589 -4.314 77 78 83
-9.613 -22.451 -4.301 76 77 82
-9.702 -22.312 -4.289 79 80 85
-9.788 -22.171 -4.276 79 80 85
-9.868 -22.027 -4.263 80 81 85
-9.947 -21.882 -4.250 80 81 85
-10.022 -21.737 -4.239 81 82 86
-10.093 -21.589 -4.227 81 82 86
-10.160 -21.440 -4.214 79 80 82
-10.223 -21.289 -4.201 78 79 81
-10.282 -21.137 -4.189 78 79 81
-10.339 -20.985 -4.178 78 79 81
-10.392 -20.832 -4.167 80 81 83
-10.442 -20.678 -4.157 82 83 85
-10.487 -20.523 -4.146 82 83 85
-10.528 -20.367 -4.134 81 82 84
-10.564 -20.210 -4.123 81 82 84
-10.598 -20.053 -4.112 81 82 84
-10.628 -19.895 -4.101 84 85 87
-10.654 -19.737 -4.091 86 87 89
-10.679 -19.579 -4.083 85 84 89
-10.699 -19.421 -4.075 85 84 89
-10.715 -19.262 -4.065 85 84 89
-10.726 -19.104 -4.056 82 81 86
-10.733 -18.945 -4.046 84 84 86
-10.733 -18.786 -4.034 82 82 82
-10.736 -18.628 -4.027 81 81 81
-10.731 -18.470 -4.017 85 85 85
-10.722 -18.312 -4.007 84 83 81
-10.708 -18.155 -3.995 87 86 84
-10.690 -17.999 -3.984 93 92 90
-10.669 -17.843 -3.973 95 94 92
-10.647 -17.688 -3.965 105 101 98
-10.618 -17.534 -3.954 111 108 103
-10.585 -17.381 -3.943 111 108 103
-10.551 -17.229 -3.934 116 113 108
-10.516 -17.078 -3.927 117 114 107
-10.476 -16.927 -3.920 117 114 107
-10.432 -16.778 -3.912 116 113 106
-10.384 -16.631 -3.904 116 113 106
-10.332 -16.485 -3.895 115 110 104
-10.273 -16.342 -3.883 115 110 104
-10.212 -16.200 -3.872 116 111 105
-10.146 -16.060 -3.860 117 112 106
-10.081 -15.921 -3.851 116 111 107
-10.005 -15.787 -3.836 114 110 101
-9.932 -15.652 -3.827 114 110 101
-9.831 -15.532 -3.791 109 104 101
-13.911 -13.180 -8.198 15 15 23
-13.851 -12.907 -8.271 15 19 28
-13.759 -12.648 -8.319 13 17 26
-13.647 -12.399 -8.353 13 17 26
-13.517 -12.159 -8.373 8 15 23
-13.353 -11.942 -8.361 9 16 24
-13.166 -11.744 -8.328 9 14 18
-9.223 -14.477 -3.838 114 113 109
-9.106 -14.375 -3.813 120 113 105
-9.453 -13.875 -4.363 108 108 106
-12.612 -10.786 -8.496 12 19 25
-12.461 -10.551 -8.543 14 21 29
-12.288 -10.332 -8.570 16 23 31
-12.109 -10.120 -8.595 12 19 27
-11.911 -9.924 -8.603 15 22 30
-11.707 -9.735 -8.609 18 25 33
-9.595 -11.871 -5.804 43 47 48
-8.023 -13.553 -3.654 113 110 105
-7.875 -13.504 -3.606 114 107 99
-7.754 -13.420 -3.604 111 108 101
-7.631 -13.340 -3.601 110 107 100
-7.508 -13.260 -3.601 111 106 100
-7.381 -13.186 -3.597 111 106 100
-7.252 -13.117 -3.592 110 105 99
-7.123 -13.048 -3.591 110 106 97
-6.974 -13.017 -3.552 98 97 95
-8.923 -8.557 -8.107 28 32 41
-8.706 -8.392 -8.163 21 33 47
-8.484 -8.233 -8.218 23 34 52
-8.245 -8.109 -8.243 16 27 45
-8.003 -7.988 -8.270 15 28 45
-7.756 -7.877 -8.293 23 39 55
-7.504 -7.780 -8.309 21 38 56
-7.243 -7.707 -8.306 23 41 61
-6.975 -7.668 -8.278 27 44 62
-6.703 -7.651 -8.234 13 22 37
-6.436 -7.617 -8.213 35 41 55
-5.318 -12.496 -3.529 98 101 94
-5.167 -12.529 -3.476 108 103 97
-5.020 -12.542 -3.445 108 103 100
-4.878 -12.530 -3.442 107 104 99
-4.735 -12.528 -3.432 107 104 99
-4.593 -12.529 -3.423 106 103 96
-4.450 -12.573 -3.376 107 104 95
-4.309 -9.290 -6.732 49 58 57
-4.087 -9.297 -6.727 47 56 55
-3.867 -9.325 -6.708 50 58 60
-3.648 -9.355 -6.692 49 57 60
-3.429 -9.385 -6.682 51 58 64
-3.212 -9.423 -6.668 51 58 64
-2.997 -9.466 -6.655 49 56 62
-2.782 -9.512 -6.644 50 57 63
-2.569 -9.566 -6.631 51 59 61
-2.357 -9.621 -6.621 52 60 62
-2.147 -9.682 -6.610 51 59 62
-1.939 -9.750 -6.598 53 60 66
-1.734 -9.823 -6.586 51 59 62
-1.530 -9.901 -6.573 51 59 61
-1.329 -9.984 -6.560 52 60 62
-1.130 -10.073 -6.547 51 59 61
-0.935 -10.167 -6.533 50 58 61
-0.742 -10.265 -6.519 52 60 63
-0.551 -10.366 -6.507 54 62 65
-0.362 -10.472 -6.495 57 65 68
-0.177 -10.582 -6.482 56 64 67
0.005 -10.697 -6.470 54 62 65
0.185 -10.815 -6.459 54 62 65
0.362 -10.937 -6.449 56 64 67
0.535 -11.062 -6.439 55 60 64
0.705 -11.193 -6.428 56 61 65
0.871 -11.329 -6.415 58 63 67
1.033 -11.468 -6.403 58 63 67
1.192 -11.610 -6.391 54 62 65
1.346 -11.756 -6.379 56 64 67
1.497 -11.906 -6.367 57 65 68
1.643 -12.061 -6.353 58 66 69
1.784 -12.219 -6.339 57 65 68
1.921 -12.381 -6.324 56 64 67
2.054 -12.545 -6.311 57 65 68
2.184 -12.712 -6.298 57 65 68
2.309 -12.881 -6.285 54 62 65
2.429 -13.054 -6.272 57 65 68
2.543 -13.230 -6.256 57 65 68
2.653 -13.409 -6.241 58 66 69
2.758 -13.590 -6.226 56 64 67
2.859 -13.773 -6.211 57 65 68
2.955 -13.959 -6.195 56 64 67
3.045 -14.146 -6.180 57 65 68
3.132 -14.335 -6.165 59 67 70
3.214 -14.526 -6.150 58 66 69
3.291 -14.718 -6.136 58 66 69
3.364 -14.911 -6.122 58 66 69
3.432 -15.106 -6.108 59 64 70
3.494 -15.302 -6.094 60 63 70
3.551 -15.500 -6.079 59 62 69
3.604 -15.698 -6.065 60 63 70
3.652 -15.897 -6.051 60 65 71
3.695 -16.097 -6.037 60 65 71
3.732 -16.298 -6.023 59 64 70
3.766 -16.499 -6.009 60 65 71
3.795 -16.700 -5.996 61 66 72
3.819 -16.902 -5.983 61 66 72
3.837 -17.104 -5.970 61 66 72
3.851 -17.306 -5.957 62 67 73
3.862 -17.507 -5.946 59 67 70
3.866 -17.709 -5.933 59 67 69
3.865 -17.911 -5.920 61 66 69
3.859 -18.112 -5.907 64 68 71
3.847 -18.312 -5.894 67 67 75
3.831 -18.512 -5.880 65 68 75
3.811 -18.711 -5.868 65 70 76
3.787 -18.909 -5.856 65 70 76
3.756 -19.106 -5.843 68 73 79
3.722 -19.303 -5.831 65 70 76
3.683 -19.498 -5.819 64 69 75
3.639 -19.691 -5.807 66 71 77
3.591 -19.884 -5.795 65 70 74
3.537 -20.074 -5.782 65 70 74
3.480 -20.263 -5.771 66 71 75
3.417 -20.450 -5.758 66 71 75
3.349 -20.635 -5.745 65 73 75
3.277 -20.818 -5.732 64 71 77
3.200 -20.999 -5.718 63 70 78
3.119 -21.177 -5.705 66 74 77
3.034 -21.353 -5.691 70 73 78
2.942 -21.526 -5.676 70 73 78
2.849 -21.697 -5.663 70 73 78
2.752 -21.866 -5.650 68 71 76
2.651 -22.032 -5.637 70 73 78
2.546 -22.195 -5.624 71 74 79
2.438 -22.356 -5.612 70 73 78
2.326 -22.514 -5.600 71 74 79
2.210 -22.668 -5.588 72 75 80
2.092 -22.820 -5.576 73 76 81
1.970 -22.968 -5.565 72 75 80
1.844 -23.114 -5.553 70 73 78
1.714 -23.255 -5.540 69 72 77
1.582 -23.393 -5.529 70 73 78
1.445 -23.527 -5.516 71 74 79
1.305 -23.657 -5.501 71 74 79
1.161 -23.782 -5.487 73 76 83
1.016 -23.905 -5.474 69 72 81
0.868 -24.024 -5.461 72 75 84
0.718 -24.140 -5.448 70 73 82
0.565 -24.251 -5.435 73 76 85
0.409 -24.358 -5.422 72 75 84
0.251 -24.461 -5.408 73 76 85
0.091 -24.560 -5.396 72 75 84
-0.070 -24.656 -5.383 71 74 79
-0.235 -24.746 -5.370 72 75 80
-0.401 -24.832 -5.356 72 75 80
-0.569 -24.913 -5.342 71 74 79
-0.740 -24.990 -5.328 72 75 80
-0.911 -25.063 -5.314 72 75 80
-1.084 -25.131 -5.301 74 77 82
-1.258 -25.195 -5.286 72 75 80
-1.433 -25.255 -5.273 71 74 79
-1.609 -25.311 -5.259 70 73 78
-1.786 -25.362 -5.246 72 75 80
-1.964 -25.408 -5.233 71 74 79
-2.143 -25.451 -5.219 71 74 79
-2.323 -25.489 -5.207 71 74 79
-2.503 -25.523 -5.194 69 72 77
-2.682 -25.555 -5.184 70 73 78
-2.863 -25.582 -5.173 71 74 79
-3.043 -25.604 -5.162 70 73 78
-3.224 -25.622 -5.152 72 75 80
-3.406 -25.634 -5.140 71 74 79
-3.587 -25.638 -5.124 72 75 82
-3.768 -25.642 -5.113 72 75 82
-3.949 -25.641 -5.101 70 73 80
-4.129 -25.634 -5.088 70 73 80
-4.309 -25.625 -5.078 72 75 80
-4.488 -25.618 -5.072 72 75 80
-4.667 -25.602 -5.064 72 75 80
-4.845 -25.583 -5.055 70 73 78
-5.022 -25.556 -5.045 74 75 80
-5.198 -25.526 -5.034 74 75 80
-5.374 -25.492 -5.024 74 75 80
-5.548 -25.454 -5.015 74 75 80
-5.721 -25.411 -5.005 73 76 81
-5.892 -25.363 -4.994 72 75 80
-6.062 -25.310 -4.982 73 76 81
-6.229 -25.253 -4.970 75 78 83
-6.396 -25.194 -4.960 78 79 83
-6.561 -25.131 -4.950 80 81 85
-6.724 -25.063 -4.939 80 81 85
-6.886 -24.993 -4.930 80 81 85
-7.045 -24.919 -4.921 79 80 84
-7.203 -24.841 -4.912 84 85 89
-7.357 -24.757 -4.900 76 77 81
-7.510 -24.672 -4.891 75 76 80
-7.661 -24.584 -4.882 75 78 83
-7.810 -24.493 -4.875 73 76 81
-7.955 -24.396 -4.865 72 75 80
-8.099 -24.297 -4.856 72 75 80
-8.240 -24.195 -4.847 75 76 81
-8.377 -24.088 -4.837 75 76 81
-8.511 -23.978 -4.826 75 76 81
-8.641 -23.863 -4.815 75 76 81
-8.768 -23.746 -4.803 75 76 81
-8.892 -23.625 -4.790 77 78 83
-9.011 -23.501 -4.777 75 76 81
-9.129 -23.375 -4.765 75 76 81
-9.242 -23.245 -4.752 75 76 81
-9.352 -23.114 -4.740 73 74 79
-9.458 -22.979 -4.726 73 74 79
-9.561 -22.843 -4.713 74 75 80
-9.661 -22.704 -4.701 76 77 82
-9.757 -22.564 -4.689 75 76 81
-9.850 -22.422 -4.677 78 79 84
-9.938 -22.277 -4.664 78 79 84
-10.023 -22.130 -4.651 77 78 82
-10.104 -21.982 -4.638 79 80 82
-10.181 -21.832 -4.626 80 81 83
-10.254 -21.680 -4.613 79 80 82
-10.322 -21.526 -4.599 78 79 81
-10.386 -21.371 -4.584 77 78 80
-10.447 -21.215 -4.571 78 79 81
-10.505 -21.059 -4.560 78 79 81
-10.560 -20.902 -4.549 78 79 81
-10.609 -20.742 -4.535 80 81 83
-10.654 -20.582 -4.522 79 80 82
-10.698 -20.423 -4.512 78 79 81
-10.737 -20.262 -4.501 77 78 80
-10.772 -20.101 -4.490 81 82 84
-10.803 -19.939 -4.479 74 75 77
-10.830 -19.777 -4.469 78 79 81
-10.854 -19.614 -4.459 83 83 83
-10.875 -19.452 -4.450 86 86 86
-10.891 -19.289 -4.440 90 90 90
-10.905 -19.126 -4.432 83 83 83
-10.915 -18.963 -4.425 80 80 78
-10.921 -18.800 -4.417 81 81 79
-10.922 -18.637 -4.408 83 83 81
-10.921 -18.474 -4.401 83 83 81
-10.915 -18.312 -4.393 80 79 77
-10.904 -18.150 -4.385 80 79 75
-10.891 -17.989 -4.378 80 79 75
-10.872 -17.828 -4.369 80 79 75
-10.848 -17.668 -4.360 84 83 78
-10.824 -17.509 -4.353 88 85 80
-10.803 -17.349 -4.354 91 86 82
-10.771 -17.191 -4.347 98 90 87
-10.729 -17.035 -4.335 98 93 87
-10.678 -16.882 -4.318 105 100 94
-10.630 -16.729 -4.307 110 105 99
-10.580 -16.577 -4.297 114 109 103
-10.524 -16.427 -4.286 116 111 105
-10.462 -16.279 -4.271 117 112 106
-10.398 -16.133 -4.259 117 112 106
-10.326 -15.991 -4.242 115 110 104
-10.254 -15.849 -4.228 117 112 108
-10.173 -15.713 -4.208 115 111 102
-10.096 -15.575 -4.195 118 114 105
-10.024 -15.435 -4.192 115 110 107
-13.787 -13.246 -8.401 21 21 29
-13.717 -12.982 -8.465 16 20 29
-13.628 -12.726 -8.515 13 17 26
-13.518 -12.480 -8.549 13 17 26
-13.386 -12.247 -8.566 14 18 29
-13.233 -12.027 -8.564 16 21 27
-9.864 -14.192 -4.694 75 79 78
-9.357 -14.373 -4.197 120 117 112
-9.240 -14.265 -4.174 121 112 105
-9.103 -14.176 -4.128 113 112 107
-12.502 -10.886 -8.702 4 9 12
-12.351 -10.655 -8.747 13 17 28
-12.191 -10.430 -8.788 11 18 28
-12.016 -10.217 -8.818 15 22 30
-11.826 -10.018 -8.834 12 19 27
-11.625 -9.831 -8.840 13 20 28
-10.471 -10.803 -7.402 13 17 18
-8.141 -13.402 -4.028 113 110 105
-7.992 -13.346 -3.984 115 108 100
-7.870 -13.255 -3.986 112 109 102
-7.746 -13.168 -3.987 113 108 102
-7.621 -13.082 -3.991 115 108 102
-7.490 -13.005 -3.989 115 108 102
-7.356 -12.932 -3.984 114 107 101
-7.218 -12.869 -3.973 116 109 103
-7.081 -12.805 -3.967 113 106 100
-8.189 -10.108 -6.783 96 96 98
-8.643 -8.534 -8.351 26 36 48
-8.428 -8.368 -8.417 18 29 47
-8.196 -8.234 -8.454 19 30 48
-7.960 -8.109 -8.488 12 25 42
-7.713 -8.006 -8.504 15 31 47
-7.466 -7.903 -8.528 23 40 58
-7.209 -7.833 -8.523 20 38 60
-6.945 -7.788 -8.500 23 40 60
-6.674 -7.778 -8.449 12 21 36
-6.186 -8.875 -7.312 36 40 51
-5.343 -12.352 -3.854 100 101 95
-5.190 -12.375 -3.809 107 102 96
-5.042 -12.369 -3.795 106 102 101
-4.895 -12.362 -3.786 104 100 99
-4.748 -12.361 -3.776 104 100 99
-4.601 -12.362 -3.765 105 101 98
-4.454 -12.396 -3.728 103 100 95
-4.309 -9.177 -7.135 47 56 55
-4.085 -9.194 -7.121 50 58 60
-3.862 -9.220 -7.103 47 55 58
-3.640 -9.249 -7.088 51 58 64
-3.419 -9.279 -7.077 51 59 62
-3.199 -9.318 -7.063 51 59 62
-2.981 -9.360 -7.050 52 59 65
-2.764 -9.408 -7.037 52 59 67
-2.548 -9.461 -7.025 51 59 62
-2.334 -9.517 -7.014 51 59 62
-2.121 -9.577 -7.005 52 60 63
-1.910 -9.644 -6.994 52 60 63
-1.702 -9.718 -6.981 52 60 63
-1.495 -9.796 -6.969 52 60 63
-1.292 -9.881 -6.954 52 60 63
-1.090 -9.969 -6.942 54 62 65
-0.891 -10.061 -6.930 53 61 64
-0.695 -10.160 -6.917 53 61 64
-0.501 -10.261 -6.906 57 65 68
-0.311 -10.370 -6.891 58 66 69
-0.123 -10.482 -6.879 54 62 65
0.059 -10.602 -6.861 54 62 65
0.241 -10.722 -6.849 51 59 62
0.419 -10.846 -6.837 55 63 66
0.594 -10.974 -6.825 52 60 63
0.768 -11.104 -6.817 56 64 67
0.936 -11.241 -6.804 54 62 65
1.100 -11.381 -6.792 55 63 66
1.262 -11.525 -6.781 54 62 65
1.418 -11.673 -6.768 56 64 67
1.572 -11.823 -6.757 55 63 66
1.723 -11.976 -6.748 57 65 68
1.867 -12.137 -6.734 57 65 68
2.006 -12.300 -6.719 57 65 68
2.141 -12.467 -6.704 57 65 68
2.271 -12.636 -6.690 55 63 66
2.399 -12.807 -6.677 57 65 68
2.521 -12.982 -6.664 57 65 68
2.639 -13.160 -6.649 55 63 66
2.750 -13.341 -6.634 56 64 67
2.856 -13.525 -6.617 57 65 68
2.959 -13.710 -6.602 57 65 68
3.057 -13.898 -6.587 57 65 68
3.150 -14.087 -6.573 56 64 67
3.239 -14.278 -6.558 58 66 69
3.322 -14.471 -6.543 58 66 69
3.401 -14.666 -6.529 58 66 69
3.474 -14.862 -6.513 58 66 69
3.543 -15.060 -6.499 60 65 71
3.606 -15.259 -6.483 57 62 68
3.664 -15.459 -6.468 59 64 70
3.719 -15.660 -6.454 59 64 70
3.768 -15.862 -6.440 57 61 70
3.816 -16.064 -6.431 57 64 72
3.856 -16.267 -6.417 58 65 73
3.890 -16.471 -6.403 58 65 73
3.919 -16.676 -6.389 59 66 74
3.944 -16.880 -6.376 59 66 74
3.964 -17.085 -6.363 58 65 73
3.978 -17.290 -6.350 58 65 73
3.989 -17.495 -6.338 59 66 72
3.994 -17.700 -6.325 62 67 73
3.993 -17.904 -6.312 63 68 72
3.987 -18.108 -6.298 62 67 70
3.977 -18.312 -6.286 62 67 73
3.961 -18.515 -6.272 64 69 75
3.940 -18.717 -6.259 62 67 73
3.916 -18.919 -6.248 63 68 74
3.887 -19.119 -6.235 66 71 77
3.852 -19.319 -6.223 66 71 77
3.812 -19.517 -6.210 67 72 78
3.767 -19.713 -6.197 65 70 76
3.718 -19.909 -6.184 65 70 74
3.664 -20.103 -6.172 65 70 73
3.605 -20.294 -6.158 66 71 74
3.540 -20.484 -6.144 65 70 73
3.472 -20.672 -6.131 67 72 76
3.399 -20.859 -6.118 64 69 75
3.322 -21.042 -6.104 70 75 81
3.239 -21.224 -6.090 67 72 78
3.151 -21.402 -6.075 66 71 77
3.060 -21.579 -6.060 69 74 80
2.965 -21.752 -6.046 67 72 78
2.867 -21.924 -6.034 66 71 77
2.765 -22.093 -6.021 65 70 76
2.658 -22.259 -6.007 65 70 76
2.548 -22.422 -5.994 65 70 76
2.434 -22.582 -5.981 67 72 78
2.317 -22.740 -5.969 68 73 77
2.198 -22.895 -5.958 69 74 77
2.074 -23.046 -5.947 69 74 77
1.947 -23.194 -5.935 68 73 76
1.815 -23.338 -5.922 66 74 77
1.680 -23.478 -5.909 69 74 80
1.542 -23.615 -5.896 72 75 82
1.400 -23.748 -5.883 72 72 80
1.255 -23.876 -5.869 71 74 81
1.108 -24.002 -5.856 70 75 81
0.958 -24.123 -5.843 70 74 83
0.806 -24.242 -5.831 69 73 82
0.652 -24.356 -5.819 72 76 87
0.493 -24.466 -5.806 72 76 85
0.332 -24.570 -5.791 73 76 83
0.169 -24.670 -5.776 73 76 83
0.004 -24.766 -5.762 72 75 82
-0.164 -24.858 -5.748 72 77 83
-0.333 -24.945 -5.733 69 74 80
-0.505 -25.027 -5.718 69 74 80
-0.678 -25.105 -5.703 71 74 81
-0.852 -25.180 -5.688 73 73 81
-1.027 -25.250 -5.675 76 76 84
-1.204 -25.316 -5.661 73 73 81
-1.382 -25.378 -5.648 70 73 80
-1.561 -25.435 -5.634 69 74 80
-1.741 -25.488 -5.621 70 75 81
-1.922 -25.537 -5.609 70 75 81
-2.104 -25.581 -5.596 70 73 78
-2.286 -25.620 -5.583 71 74 79
-2.470 -25.653 -5.567 73 76 81
-2.653 -25.685 -5.556 73 76 81
-2.837 -25.711 -5.543 73 76 81
-3.021 -25.733 -5.531 73 76 81
-3.205 -25.750 -5.519 72 75 80
-3.390 -25.764 -5.508 72 75 80
-3.574 -25.773 -5.496 71 74 79
-3.758 -25.777 -5.485 71 74 79
-3.942 -25.777 -5.474 70 73 80
-4.126 -25.774 -5.464 68 71 80
-4.309 -25.766 -5.454 71 74 79
-4.491 -25.754 -5.444 73 77 80
-4.673 -25.737 -5.434 69 73 76
-4.855 -25.715 -5.423 69 73 76
-5.035 -25.688 -5.412 71 74 79
-5.215 -25.657 -5.400 71 74 79
-5.393 -25.622 -5.390 71 74 79
-5.570 -25.583 -5.380 71 74 79
-5.747 -25.541 -5.370 72 75 80
-5.921 -25.493 -5.359 72 75 80
-6.094 -25.440 -5.348 72 75 80
-6.266 -25.384 -5.338 76 79 84
-6.436 -25.324 -5.328 78 79 84
-6.604 -25.261 -5.319 79 80 84
-6.771 -25.194 -5.309 81 82 86
-6.936 -25.122 -5.299 81 82 84
-7.098 -25.046 -5.289 81 82 84
-7.258 -24.967 -5.279 83 84 86
-7.417 -24.884 -5.270 76 77 81
-7.574 -24.800 -5.263 73 74 79
-7.728 -24.710 -5.254 72 75 82
-7.880 -24.617 -5.246 72 75 80
-8.029 -24.520 -5.237 72 76 79
-8.176 -24.418 -5.228 72 76 79
-8.320 -24.315 -5.219 75 76 81
-8.460 -24.206 -5.209 74 75 80
-8.593 -24.089 -5.192 76 77 82
-8.725 -23.971 -5.178 74 75 80
-8.854 -23.850 -5.164 74 75 80
-8.980 -23.727 -5.151 76 77 82
-9.102 -23.601 -5.137 74 75 80
-9.221 -23.472 -5.125 75 76 81
-9.337 -23.340 -5.111 75 78 83
-9.447 -23.205 -5.095 73 76 81
-9.555 -23.067 -5.080 73 74 79
-9.658 -22.927 -5.065 77 76 82
-9.760 -22.786 -5.052 74 74 82
-9.859 -22.643 -5.040 73 76 81
-9.955 -22.499 -5.029 78 81 86
-10.045 -22.352 -5.016 74 78 81
-10.132 -22.203 -5.004 78 82 83
-10.214 -22.052 -4.990 77 81 82
-10.295 -21.900 -4.979 75 79 80
-10.371 -21.746 -4.967 77 81 82
-10.446 -21.592 -4.959 82 82 82
-10.514 -21.435 -4.946 77 75 76
-10.577 -21.277 -4.934 80 78 79
-10.639 -21.118 -4.924 71 69 70
-10.699 -20.959 -4.916 71 70 68
-10.754 -20.799 -4.909 70 69 67
-10.807 -20.637 -4.901 76 75 73
-10.855 -20.475 -4.894 120 119 117
-10.901 -20.312 -4.889 157 156 152
-10.946 -20.149 -4.887 181 180 176
-10.989 -19.985 -4.886 166 165 161
-11.028 -19.821 -4.886 138 137 133
-11.073 -19.658 -4.897 112 111 106
-11.117 -19.494 -4.910 83 80 75
-11.150 -19.327 -4.916 79 76 71
-11.163 -19.158 -4.906 96 93 88
-11.173 -18.988 -4.898 109 104 98
-11.185 -18.819 -4.894 116 111 105
-11.189 -18.650 -4.889 120 115 109
-11.188 -18.481 -4.881 114 109 103
-11.185 -18.312 -4.876 117 110 104
-11.177 -18.144 -4.870 121 114 108
-11.162 -17.975 -4.861 114 107 101
-11.143 -17.808 -4.853 107 100 94
-11.118 -17.641 -4.843 91 84 78
-11.094 -17.475 -4.837 102 95 89
-11.063 -17.310 -4.828 96 87 82
-11.029 -17.146 -4.821 94 85 80
-10.991 -16.983 -4.813 100 91 84
-10.946 -16.822 -4.802 115 106 99
-10.898 -16.662 -4.793 110 101 94
-10.844 -16.504 -4.781 114 105 98
-10.780 -16.349 -4.762 104 95 88
-10.704 -16.200 -4.735 113 104 97
-10.625 -16.052 -4.708 117 108 101
-10.543 -15.908 -4.682 116 107 100
-10.465 -15.762 -4.663 116 107 100
-10.375 -15.623 -4.636 121 112 105
-10.290 -15.483 -4.616 118 109 102
-10.250 -15.322 -4.651 112 107 104
-13.662 -13.313 -8.606 11 16 22
-13.586 -13.057 -8.662 11 18 26
-13.493 -12.807 -8.708 12 19 27
-13.385 -12.565 -8.742 12 19 27
-13.245 -12.341 -8.748 13 20 30
-13.111 -12.113 -8.766 16 24 27
-9.682 -14.327 -4.690 113 115 112
-9.488 -14.270 -4.569 115 110 106
-9.367 -14.161 -4.543 117 112 106
-9.257 -14.043 -4.535 116 111 105
-11.109 -12.149 -7.177 108 107 105
-12.231 -10.770 -8.938 23 27 36
-12.089 -10.532 -9.003 13 20 30
-11.915 -10.324 -9.030 14 21 29
-11.735 -10.119 -9.058 13 20 28
-11.536 -9.934 -9.064 18 25 33
-11.314 -9.777 -9.042 22 28 26
-8.254 -13.257 -4.413 107 106 101
-8.106 -13.192 -4.374 118 111 105
-7.976 -13.104 -4.370 118 110 108
-7.848 -13.015 -4.370 117 109 107
-7.719 -12.927 -4.374 118 108 106
-7.584 -12.847 -4.371 116 106 104
-7.447 -12.773 -4.366 116 106 104
-7.303 -12.710 -4.352 113 108 102
-7.167 -12.635 -4.356 115 106 97
-7.005 -12.611 -4.307 119 112 106
-8.577 -8.683 -8.533 15 19 28
-8.366 -8.518 -8.601 19 32 48
-8.148 -8.358 -8.669 20 32 56
-7.915 -8.233 -8.705 20 33 49
-7.673 -8.129 -8.724 17 33 48
-7.429 -8.026 -8.749 22 37 58
-7.174 -7.959 -8.742 23 39 62
-6.914 -7.913 -8.721 25 42 62
-6.645 -7.909 -8.662 12 24 40
-6.171 -8.948 -7.547 25 36 42
-5.369 -12.200 -4.203 95 100 93
-5.212 -12.223 -4.156 109 105 102
-5.062 -12.208 -4.150 107 103 104
-4.910 -12.204 -4.138 107 104 97
-4.760 -12.201 -4.128 108 105 96
-4.609 -12.204 -4.116 103 103 93
-4.458 -12.234 -4.080 101 103 92
-4.309 -9.075 -7.545 50 59 58
-4.082 -9.088 -7.534 48 56 58
-3.857 -9.114 -7.516 51 59 62
-3.632 -9.144 -7.499 49 56 62
-3.408 -9.169 -7.493 49 57 60
-3.186 -9.213 -7.473 49 57 60
-2.965 -9.251 -7.465 52 59 65
-2.746 -9.303 -7.448 52 59 65
-2.527 -9.354 -7.437 52 59 65
-2.309 -9.409 -7.429 52 60 63
-2.094 -9.468 -7.420 52 60 63
-1.880 -9.535 -7.410 52 60 63
-1.668 -9.608 -7.398 52 60 63
-1.460 -9.688 -7.385 52 60 63
-1.253 -9.771 -7.373 52 60 63
-1.048 -9.859 -7.362 53 61 64
-0.847 -9.954 -7.348 53 61 64
-0.648 -10.053 -7.335 53 61 64
-0.452 -10.157 -7.321 53 61 64
-0.259 -10.266 -7.308 55 63 66
-0.068 -10.378 -7.296 54 62 65
0.119 -10.496 -7.282 54 62 65
0.304 -10.616 -7.271 55 63 66
0.485 -10.742 -7.259 55 63 66
0.663 -10.871 -7.247 55 63 66
0.839 -11.003 -7.238 53 61 64
1.010 -11.140 -7.226 54 62 65
1.178 -11.281 -7.215 54 62 65
1.342 -11.426 -7.204 56 64 67
1.502 -11.576 -7.192 57 65 68
1.658 -11.729 -7.180 55 63 66
1.810 -11.886 -7.168 57 65 68
1.956 -12.047 -7.154 57 65 68
2.098 -12.213 -7.140 57 65 68
2.236 -12.381 -7.126 58 66 69
2.370 -12.551 -7.113 56 64 67
2.499 -12.725 -7.100 57 65 68
2.623 -12.903 -7.085 57 65 68
2.742 -13.083 -7.070 56 64 67
2.855 -13.267 -7.054 57 65 68
2.964 -13.453 -7.038 57 65 68
3.069 -13.640 -7.023 57 65 68
3.168 -13.831 -7.007 56 64 67
3.263 -14.023 -6.992 57 65 68
3.353 -14.217 -6.976 58 66 69
3.438 -14.413 -6.961 58 66 69
3.522 -14.609 -6.950 57 65 68
3.597 -14.808 -6.935 57 65 68
3.666 -15.009 -6.919 61 66 72
3.731 -15.211 -6.903 60 65 71
3.790 -15.415 -6.887 59 64 70
3.845 -15.619 -6.873 59 64 70
3.895 -15.824 -6.858 56 63 69
3.939 -16.030 -6.842 58 65 71
3.978 -16.236 -6.827 57 64 70
4.013 -16.443 -6.813 57 64 70
4.043 -16.651 -6.799 58 65 71
4.069 -16.858 -6.786 58 65 71
4.088 -17.067 -6.772 58 65 71
4.103 -17.275 -6.758 58 65 71
4.114 -17.483 -6.745 59 63 72
4.120 -17.690 -6.733 62 67 73
4.120 -17.898 -6.720 60 65 69
4.115 -18.105 -6.707 63 68 72
4.105 -18.312 -6.694 63 68 74
4.090 -18.518 -6.681 62 67 73
4.070 -18.724 -6.668 64 69 75
4.046 -18.928 -6.656 63 68 74
4.016 -19.132 -6.644 63 68 74
3.981 -19.335 -6.630 65 70 76
3.941 -19.536 -6.618 64 69 75
3.897 -19.736 -6.605 65 70 76
3.847 -19.935 -6.593 66 71 75
3.793 -20.131 -6.579 66 71 75
3.732 -20.326 -6.565 63 68 72
3.667 -20.519 -6.551 67 72 76
3.599 -20.711 -6.538 65 70 76
3.524 -20.900 -6.524 66 71 77
3.445 -21.087 -6.510 65 70 76
3.361 -21.271 -6.495 64 69 75
3.272 -21.452 -6.478 66 71 77
3.179 -21.631 -6.463 67 72 78
3.082 -21.808 -6.448 70 75 81
2.982 -21.982 -6.434 69 74 80
2.877 -22.153 -6.419 65 70 76
2.768 -22.321 -6.404 65 70 76
2.655 -22.486 -6.389 66 71 77
2.540 -22.649 -6.376 65 70 76
2.421 -22.809 -6.363 66 71 75
2.299 -22.966 -6.351 67 72 76
2.173 -23.120 -6.339 65 70 74
2.044 -23.270 -6.327 64 69 73
1.912 -23.417 -6.315 67 74 80
1.775 -23.560 -6.302 66 71 77
1.636 -23.700 -6.289 69 72 79
1.492 -23.835 -6.275 69 72 79
1.345 -23.966 -6.261 69 74 78
1.196 -24.094 -6.248 69 74 80
