ply
format ascii 1.0
element vertex 1478
property float x
property float y
property float z
property uchar red
property uchar green
property uchar blue
end_header
-15.760 -33.845 2.000 44 37 29
-15.758 -33.802 2.000 41 36 32
-15.757 -33.759 2.000 49 44 38
-15.755 -33.715 2.000 50 43 37
-15.753 -33.672 2.000 51 43 40
-15.750 -33.628 2.000 55 47 44
-15.744 -33.585 2.000 48 41 35
-15.735 -33.543 2.000 51 41 40
-15.727 -33.500 2.000 60 52 39
-15.726 -33.455 2.000 232 213 181
-15.716 -33.412 2.000 170 163 145
-15.709 -33.368 2.000 161 155 141
-15.700 -33.324 2.000 157 153 141
-15.693 -33.279 2.000 150 152 138
-15.683 -33.236 2.000 163 160 145
-15.671 -33.192 2.000 163 161 146
-15.656 -33.150 2.000 151 148 131
-15.639 -33.108 2.000 167 166 146
-15.622 -33.066 2.000 141 135 121
-15.606 -33.023 2.000 160 164 147
-15.590 -32.981 2.000 143 141 126
-15.569 -32.940 2.000 172 169 154
-15.547 -32.900 2.000 163 152 130
-15.527 -32.859 2.000 173 167 151
-15.506 -32.817 2.000 171 163 144
-15.482 -32.777 2.000 171 164 145
-15.459 -32.737 2.000 162 157 138
-15.435 -32.697 2.000 166 161 141
-15.412 -32.655 2.000 160 161 143
-15.386 -32.615 2.000 116 104 88
-15.354 -32.580 2.000 39 30 21
-15.327 -32.541 2.000 46 37 30
-15.296 -32.505 2.000 44 33 27
-15.261 -32.474 2.000 55 42 36
-15.225 -32.442 2.000 54 41 33
-15.190 -32.410 2.000 58 45 37
-15.154 -32.379 2.000 48 38 29
-15.118 -32.348 2.000 44 35 26
-15.081 -32.319 2.000 41 39 26
-15.044 -32.288 2.000 47 44 25
-15.009 -32.254 2.000 123 111 87
-14.969 -32.228 2.000 23 23 15
-14.927 -32.203 2.000 42 39 32
-14.884 -32.182 2.000 36 31 25
-14.842 -32.158 2.000 40 35 29
-14.800 -32.135 2.000 45 40 34
-14.757 -32.112 2.000 43 38 32
-14.713 -32.091 2.000 43 40 33
-14.669 -32.071 2.000 36 33 26
-14.624 -32.053 2.000 34 34 26
-14.578 -32.037 2.000 32 28 19
-14.533 -32.016 2.000 85 67 47
-14.489 -31.993 2.000 25 19 0
-14.443 -31.973 2.000 39 37 25
-14.396 -31.959 2.000 47 37 36
-14.348 -31.947 2.000 41 30 26
-14.300 -31.934 2.000 38 27 21
-14.251 -31.922 2.000 45 34 30
-14.202 -31.911 2.000 32 29 22
-14.153 -31.905 2.000 33 33 25
-14.103 -31.897 2.000 42 42 34
-14.054 -31.890 2.000 20 20 12
-14.003 -32.174 1.971 31 43 0
-13.961 -32.188 1.971 47 61 25
-13.919 -32.208 1.972 23 39 12
-13.878 -32.228 1.972 43 57 31
-13.838 -32.247 1.972 39 53 27
-13.798 -32.267 1.973 41 55 20
-13.759 -32.287 1.973 40 51 21
-13.721 -32.303 1.973 56 66 31
-13.683 -32.322 1.973 66 80 31
-13.647 -32.346 1.973 74 86 48
-13.612 -32.370 1.974 58 69 27
-13.576 -32.385 1.974 61 70 39
-13.531 -32.373 1.973 60 68 44
-13.481 -32.348 1.973 57 63 37
-13.434 -32.339 1.972 75 81 55
-13.390 -32.340 1.972 45 54 33
-13.347 -32.347 1.972 25 34 15
-13.306 -32.358 1.972 44 52 29
-13.267 -32.374 1.972 44 52 28
-13.226 -32.388 1.972 49 57 36
-13.186 -32.403 1.972 42 48 34
-13.146 -32.418 1.972 40 46 34
-13.112 -32.443 1.972 29 35 25
-13.078 -32.470 1.972 33 36 27
-13.042 -32.493 1.972 39 42 33
-13.007 -32.516 1.972 46 52 42
-12.976 -32.546 1.972 57 67 58
-12.945 -32.575 1.972 34 40 30
-12.914 -32.604 1.972 62 65 56
-12.887 -32.637 1.972 28 31 24
-12.860 -32.669 1.972 24 26 21
-12.836 -32.705 1.972 43 45 40
-12.814 -32.742 1.972 24 29 22
-12.798 -32.784 1.973 46 54 31
-12.775 -32.818 1.973 41 49 8
-12.747 -32.848 1.973 73 80 38
-12.720 -32.878 1.973 61 69 32
-12.700 -32.914 1.973 61 72 29
-12.679 -32.949 1.973 65 75 22
-12.655 -32.982 1.973 95 105 45
-12.638 -33.019 1.973 79 88 41
-12.625 -33.058 1.973 75 84 39
-12.611 -33.097 1.973 65 74 31
-12.593 -33.132 1.973 68 76 39
-12.577 -33.169 1.974 61 68 37
-12.562 -33.206 1.974 42 49 16
-12.552 -33.245 1.974 54 62 25
-12.545 -33.285 1.974 58 65 34
-12.539 -33.325 1.974 48 55 22
-12.533 -33.364 1.974 76 83 50
-12.533 -33.405 1.974 60 67 34
-12.537 -33.447 1.975 55 62 29
-12.545 -33.489 1.975 37 41 16
-12.550 -33.529 1.975 37 42 12
-12.551 -33.568 1.976 60 67 26
-12.556 -33.606 1.976 65 72 30
-12.565 -33.645 1.976 70 77 35
-12.569 -33.682 1.976 60 66 28
-12.576 -33.720 1.976 80 86 48
-12.588 -33.757 1.977 66 73 29
-12.606 -33.794 1.977 66 73 32
-12.648 -33.831 1.978 73 73 35
-12.740 -33.869 1.979 94 86 49
-12.859 -33.903 1.981 96 86 50
-12.854 -33.931 1.981 128 120 74
-12.855 -33.960 1.981 118 109 68
-12.855 -33.988 1.981 147 141 105
-12.863 -34.015 1.981 94 92 54
-12.870 -34.043 1.981 71 68 49
-12.866 -34.072 1.981 100 100 100
-12.854 -34.102 1.981 35 37 32
-12.843 -34.133 1.981 29 29 19
-12.831 -34.165 1.980 71 72 58
-12.811 -34.199 1.980 38 41 10
-12.793 -34.235 1.980 87 90 45
-12.777 -34.271 1.979 58 67 24
-12.748 -34.312 1.979 128 134 96
-12.761 -34.342 1.979 75 80 39
-12.772 -34.372 1.979 60 65 24
-12.785 -34.401 1.979 60 64 27
-12.807 -34.427 1.979 40 44 7
-12.824 -34.454 1.979 103 108 68
-12.840 -34.482 1.979 74 78 43
-12.855 -34.510 1.979 92 94 73
-12.869 -34.538 1.979 26 25 21
-12.882 -34.567 1.979 19 19 11
-12.894 -34.596 1.979 20 22 8
-12.902 -34.629 1.979 58 60 49
-12.911 -34.661 1.979 32 38 38
-12.924 -34.691 1.978 38 41 46
-12.935 -34.724 1.978 43 44 49
-12.951 -34.753 1.978 47 51 60
-12.963 -34.785 1.978 58 59 63
-12.978 -34.816 1.978 25 23 26
-12.996 -34.845 1.978 95 95 97
-13.017 -34.871 1.978 20 21 23
-13.041 -34.894 1.978 157 157 157
-13.063 -34.919 1.978 45 45 43
-13.104 -34.924 1.978 12 12 10
-8.330 -40.508 1.858 120 120 118
-8.415 -40.741 1.856 84 84 84
-8.573 -40.889 1.856 86 86 86
-8.727 -41.046 1.855 86 84 85
-13.220 -35.044 1.978 177 173 172
-13.285 -35.007 1.979 212 205 197
-13.315 -35.019 1.979 184 178 166
-13.342 -35.035 1.979 200 194 180
-13.366 -35.056 1.979 196 190 174
-13.392 -35.075 1.979 204 197 179
-13.417 -35.096 1.979 189 180 163
-13.438 -35.126 1.978 247 236 218
-13.461 -35.156 1.978 248 235 216
-13.485 -35.182 1.978 251 240 222
-13.514 -35.201 1.978 250 239 221
-13.543 -35.218 1.978 249 241 222
-13.573 -35.235 1.978 248 241 222
-13.602 -35.253 1.977 250 238 224
-13.633 -35.271 1.977 253 239 228
-13.664 -35.287 1.977 255 242 229
-13.696 -35.300 1.977 211 198 182
-13.729 -35.312 1.977 255 247 228
-13.762 -35.323 1.977 249 238 218
-13.795 -35.336 1.977 252 240 224
-13.829 -35.346 1.977 249 240 225
-13.863 -35.353 1.977 249 238 218
-13.898 -35.355 1.977 251 243 222
-13.933 -35.360 1.977 251 240 222
-13.968 -35.364 1.977 251 239 223
-14.003 -35.369 1.976 255 245 228
-14.039 -35.371 1.976 175 169 145
-14.074 -35.377 1.976 248 231 213
-14.110 -35.382 1.976 255 241 222
-14.147 -35.388 1.976 249 236 219
-14.184 -35.393 1.976 252 235 219
-14.220 -35.391 1.976 255 238 222
-14.256 -35.390 1.976 251 234 218
-14.293 -35.386 1.976 243 231 215
-14.329 -35.380 1.976 252 232 208
-14.366 -35.377 1.976 240 227 208
-14.404 -35.377 1.975 255 247 230
-14.438 -35.364 1.975 215 199 183
-14.473 -35.351 1.976 251 238 222
-14.508 -35.341 1.975 255 246 230
-14.544 -35.334 1.975 255 244 228
-14.579 -35.322 1.975 239 232 216
-14.614 -35.309 1.975 247 240 224
-14.648 -35.294 1.975 244 231 215
-14.683 -35.281 1.975 245 227 207
-14.717 -35.267 1.975 251 234 216
-14.750 -35.249 1.975 247 231 215
-14.783 -35.233 1.975 246 230 214
-14.817 -35.216 1.975 241 226 207
-14.844 -35.189 1.975 192 182 172
-14.860 -35.147 1.976 185 178 168
-14.876 -35.108 1.976 183 176 166
-14.894 -35.072 1.976 184 177 167
-14.910 -35.037 1.977 181 172 163
-14.924 -34.998 1.977 180 172 159
-14.939 -34.963 1.977 175 168 152
-14.949 -34.925 1.978 184 176 165
-14.958 -34.886 1.978 179 173 161
-14.965 -34.847 1.978 188 181 171
-14.970 -34.807 1.979 171 164 156
-14.975 -34.769 1.979 176 169 161
-14.975 -34.729 1.979 102 98 87
-14.977 -34.691 1.980 248 244 235
-14.969 -34.648 1.980 35 32 27
-14.974 -34.615 1.981 36 36 28
-14.987 -34.589 1.981 216 212 201
-14.986 -34.554 1.981 131 124 118
-15.203 -34.650 1.977 202 194 173
-15.437 -34.744 1.973 226 214 188
-15.462 -34.711 1.973 19 14 11
-15.489 -34.679 1.973 25 20 24
-15.508 -34.643 1.973 18 9 12
-15.521 -34.604 1.973 33 22 16
-15.563 -34.577 1.972 231 215 181
-15.577 -34.538 1.972 165 149 134
-15.586 -34.498 1.972 175 170 164
-15.603 -34.460 1.972 190 198 183
-15.617 -34.421 1.972 165 161 150
-15.635 -34.383 1.972 176 173 158
-15.655 -34.345 1.972 199 191 178
-15.671 -34.306 1.972 162 158 149
-15.688 -34.266 1.972 171 168 151
-15.703 -34.226 1.972 132 115 95
-15.717 -34.186 1.972 62 49 43
-15.728 -34.144 1.972 65 51 50
-15.737 -34.102 1.971 61 46 39
-15.744 -34.060 1.971 61 48 40
-15.749 -34.017 1.971 57 44 36
-15.751 -33.974 1.971 61 48 40
-15.752 -33.931 1.971 53 41 29
-15.760 -33.888 1.971 197 183 157
-15.761 -33.845 1.971 56 38 26
-15.759 -33.802 1.971 62 48 45
-15.757 -33.759 1.971 63 55 44
-15.756 -33.715 1.971 57 49 36
-15.755 -33.672 1.971 54 46 33
-15.753 -33.628 1.971 58 50 37
-15.749 -33.584 1.971 63 49 38
-15.743 -33.541 1.971 77 53 49
-15.732 -33.498 1.971 79 65 52
-15.734 -33.452 1.971 220 196 168
-15.721 -33.410 1.971 191 186 166
-15.715 -33.366 1.971 190 184 172
-15.706 -33.322 1.970 197 195 180
-15.699 -33.277 1.970 203 202 184
-15.689 -33.233 1.970 187 181 167
-15.676 -33.190 1.970 191 188 173
-15.662 -33.147 1.970 190 187 170
-15.645 -33.105 1.970 208 205 186
-15.628 -33.063 1.970 171 165 151
-15.613 -33.020 1.970 185 189 172
-15.597 -32.976 1.970 161 158 143
-15.576 -32.936 1.970 203 200 185
-15.553 -32.896 1.969 205 194 172
-15.533 -32.854 1.969 191 185 169
-15.512 -32.812 1.969 201 193 174
-15.487 -32.773 1.969 206 199 180
-15.463 -32.733 1.969 199 192 174
-15.440 -32.692 1.969 186 183 166
-15.416 -32.651 1.969 170 169 151
-15.390 -32.611 1.969 127 114 97
-15.356 -32.579 1.969 53 43 31
-15.329 -32.539 1.969 60 53 43
-15.298 -32.503 1.968 67 63 52
-15.261 -32.473 1.968 40 36 25
-15.226 -32.441 1.968 49 41 30
-15.190 -32.410 1.968 59 51 38
-15.154 -32.379 1.968 55 49 35
-15.118 -32.348 1.968 50 47 32
-15.081 -32.319 1.968 52 45 35
-15.044 -32.287 1.968 62 49 32
-15.008 -32.255 1.968 226 208 186
-14.967 -32.230 1.968 56 43 34
-14.927 -32.203 1.968 55 48 38
-14.884 -32.182 1.968 70 64 52
-14.842 -32.158 1.968 61 55 43
-14.800 -32.135 1.968 51 45 33
-14.757 -32.112 1.968 55 49 37
-14.714 -32.090 1.968 52 46 34
-14.669 -32.071 1.968 53 47 35
-14.624 -32.053 1.968 62 56 44
-14.578 -32.038 1.968 41 41 33
-14.534 -32.015 1.967 102 85 59
-14.490 -31.988 1.967 47 31 5
-14.442 -31.978 1.967 38 38 26
-14.395 -31.965 1.967 43 45 34
-14.346 -31.956 1.967 49 51 37
-14.299 -31.937 1.967 49 52 33
-14.251 -31.926 1.967 44 46 32
-14.202 -31.913 1.967 49 47 34
-14.153 -31.904 1.967 49 47 32
-14.103 -31.896 1.967 141 139 124
-14.054 -31.877 1.966 68 66 51
-14.003 -32.174 1.942 46 58 10
-13.961 -32.188 1.943 69 83 50
-13.919 -32.206 1.943 16 30 13
-13.877 -32.222 1.944 7 21 0
-13.837 -32.241 1.944 44 58 32
-13.798 -32.262 1.945 53 67 34
-13.758 -32.280 1.945 62 72 47
-13.719 -32.294 1.946 23 33 0
-13.681 -32.312 1.946 42 55 9
-13.645 -32.336 1.946 34 46 8
-13.609 -32.357 1.947 54 66 20
-13.572 -32.371 1.947 62 73 33
-13.528 -32.364 1.946 56 60 35
-13.479 -32.345 1.945 59 65 39
-13.433 -32.338 1.945 51 59 36
-13.390 -32.342 1.944 49 59 35
-13.348 -32.350 1.944 50 58 37
-13.306 -32.358 1.944 56 63 45
-13.267 -32.375 1.944 50 57 39
-13.225 -32.385 1.943 44 52 31
-13.185 -32.400 1.943 51 57 43
-13.146 -32.417 1.943 32 38 26
-13.113 -32.446 1.943 41 43 30
-13.079 -32.472 1.943 60 60 48
-13.043 -32.494 1.943 35 39 25
-13.006 -32.516 1.943 51 61 50
-12.975 -32.545 1.944 11 23 13
-12.945 -32.575 1.944 36 44 31
-12.916 -32.607 1.944 82 86 71
-12.887 -32.637 1.944 14 17 8
-12.860 -32.670 1.944 22 24 23
-12.834 -32.703 1.944 33 35 32
-12.813 -32.741 1.945 24 31 15
-12.794 -32.780 1.945 72 81 54
-12.774 -32.817 1.946 69 77 38
-12.747 -32.847 1.946 73 80 36
-12.719 -32.877 1.946 65 73 34
-12.698 -32.913 1.946 57 68 25
-12.673 -32.945 1.946 75 84 37
-12.654 -32.981 1.946 71 77 39
-12.640 -33.021 1.946 49 56 23
-12.623 -33.057 1.947 60 69 22
-12.605 -33.093 1.947 76 87 31
-12.592 -33.132 1.947 47 54 20
-12.578 -33.169 1.947 52 60 37
-12.564 -33.207 1.947 78 87 58
-12.553 -33.246 1.947 48 58 24
-12.547 -33.286 1.948 29 37 14
-12.538 -33.324 1.948 51 60 33
-12.530 -33.363 1.948 40 49 18
-12.530 -33.404 1.949 64 73 42
-12.532 -33.445 1.949 64 73 42
-12.538 -33.487 1.950 69 74 44
-12.540 -33.526 1.950 79 84 52
-12.539 -33.565 1.951 70 76 38
-12.540 -33.603 1.951 63 70 26
-12.544 -33.641 1.951 65 74 29
-12.551 -33.679 1.952 76 84 43
-12.560 -33.717 1.952 82 89 55
-12.574 -33.755 1.953 76 84 47
-12.596 -33.793 1.954 72 79 46
-12.635 -33.830 1.955 50 50 14
-12.698 -33.867 1.957 66 63 20
-12.754 -33.901 1.959 137 134 89
-12.755 -33.931 1.959 74 72 23
-12.766 -33.962 1.959 92 90 42
-12.782 -33.991 1.960 83 82 38
-12.800 -34.020 1.961 70 72 25
-12.821 -34.048 1.961 39 43 10
-12.836 -34.075 1.961 14 20 10
-12.834 -34.105 1.961 10 21 5
-12.825 -34.136 1.961 53 59 33
-12.811 -34.169 1.960 86 91 61
-12.786 -34.205 1.959 93 101 62
-12.770 -34.240 1.958 72 83 41
-12.761 -34.275 1.958 54 65 31
-12.736 -34.316 1.957 158 168 134
-12.750 -34.345 1.957 72 83 43
-12.771 -34.372 1.957 61 72 32
-12.785 -34.401 1.957 39 49 15
-12.805 -34.428 1.958 82 92 58
-12.821 -34.456 1.958 64 76 40
-12.832 -34.485 1.958 57 68 34
-12.845 -34.515 1.958 66 76 51
-12.859 -34.543 1.958 44 52 31
-12.873 -34.572 1.957 47 56 25
-12.888 -34.600 1.957 68 74 38
-12.902 -34.629 1.957 73 75 51
-12.915 -34.659 1.957 45 48 41
-12.927 -34.689 1.957 44 45 40
-12.937 -34.722 1.957 95 95 95
-12.952 -34.752 1.956 51 55 66
-12.963 -34.785 1.956 97 102 108
-12.978 -34.816 1.956 18 23 29
-12.998 -34.843 1.956 129 133 142
-13.020 -34.868 1.956 11 15 16
-13.048 -34.887 1.956 210 212 211
-13.071 -34.911 1.956 109 111 110
-13.113 -34.913 1.957 44 46 43
-8.356 -40.478 1.717 145 147 144
-8.443 -40.706 1.713 83 85 82
-8.603 -40.852 1.713 75 77 76
-8.746 -41.020 1.711 141 140 145
-13.243 -35.012 1.957 16 13 22
-13.293 -34.995 1.958 62 59 66
-13.320 -35.011 1.958 38 36 39
-13.346 -35.029 1.958 26 25 23
-13.367 -35.056 1.958 66 66 58
-13.391 -35.078 1.957 147 142 136
-13.414 -35.102 1.957 211 204 198
-13.436 -35.132 1.957 196 189 181
-13.460 -35.158 1.956 139 132 124
-13.486 -35.180 1.956 49 42 32
-13.515 -35.197 1.956 92 88 79
-13.545 -35.213 1.955 72 69 62
-13.574 -35.230 1.955 44 41 36
-13.603 -35.250 1.955 35 33 36
-13.634 -35.268 1.955 44 44 46
-13.664 -35.285 1.954 31 31 31
-13.695 -35.303 1.954 19 19 19
-13.728 -35.317 1.954 132 129 114
-13.762 -35.325 1.954 155 151 140
-13.796 -35.329 1.954 28 24 23
-13.830 -35.337 1.954 19 17 20
-13.864 -35.344 1.954 135 134 139
-13.899 -35.350 1.953 52 55 60
-13.933 -35.357 1.953 69 76 84
-13.968 -35.362 1.953 84 94 104
-14.003 -35.364 1.953 96 107 111
-14.039 -35.368 1.953 80 93 99
-14.074 -35.374 1.953 239 238 233
-14.110 -35.378 1.953 94 98 97
-14.146 -35.381 1.952 89 104 111
-14.183 -35.386 1.952 79 92 100
-14.219 -35.385 1.952 97 110 118
-14.255 -35.382 1.952 97 110 118
-14.292 -35.382 1.952 83 100 108
-14.328 -35.375 1.952 93 101 103
-14.364 -35.371 1.951 82 97 102
-14.401 -35.370 1.951 107 122 129
-14.438 -35.364 1.951 160 154 142
-14.474 -35.355 1.951 166 157 142
-14.508 -35.340 1.951 147 138 123
-14.543 -35.331 1.951 76 67 52
-14.580 -35.323 1.951 121 108 89
-14.614 -35.308 1.951 145 141 129
-14.647 -35.291 1.951 96 106 108
-14.681 -35.278 1.951 77 94 104
-14.717 -35.266 1.950 71 91 102
-14.750 -35.249 1.950 70 90 99
-14.782 -35.231 1.950 75 90 97
-14.816 -35.215 1.950 74 88 91
-14.846 -35.192 1.950 131 128 121
-14.863 -35.151 1.951 42 38 29
-14.878 -35.111 1.952 96 93 88
-14.895 -35.074 1.953 173 166 156
-14.911 -35.037 1.953 178 169 160
-14.924 -34.999 1.954 177 169 158
-14.940 -34.965 1.954 178 170 157
-14.953 -34.928 1.955 177 168 159
-14.963 -34.891 1.956 181 172 163
-14.972 -34.854 1.956 176 167 158
-14.978 -34.815 1.957 179 170 161
-14.981 -34.775 1.958 184 176 165
-14.986 -34.737 1.958 171 168 153
-14.982 -34.695 1.959 170 166 155
-14.983 -34.658 1.960 87 84 77
-14.983 -34.621 1.961 78 78 68
-14.987 -34.588 1.961 213 212 192
-14.995 -34.559 1.962 76 71 68
-15.260 -34.685 1.952 173 163 153
-15.441 -34.746 1.946 222 203 171
-15.469 -34.715 1.946 35 28 12
-15.496 -34.683 1.945 44 41 34
-15.515 -34.646 1.945 73 69 58
-15.530 -34.608 1.945 63 58 39
-15.571 -34.581 1.944 232 218 183
-15.582 -34.540 1.945 141 125 110
-15.593 -34.500 1.945 153 146 138
-15.609 -34.462 1.945 156 160 143
-15.624 -34.423 1.945 139 135 123
-15.642 -34.385 1.944 165 162 147
-15.662 -34.347 1.944 157 151 137
-15.678 -34.308 1.944 129 126 117
-15.695 -34.268 1.944 155 157 135
-15.710 -34.227 1.943 119 105 76
-15.725 -34.187 1.943 38 30 11
-15.735 -34.145 1.943 85 81 70
-15.744 -34.103 1.943 155 158 141
-15.749 -34.060 1.943 141 148 130
-15.753 -34.017 1.943 153 160 142
-15.757 -33.974 1.943 140 147 129
-15.763 -33.931 1.942 61 63 41
-15.772 -33.888 1.942 224 224 190
-15.768 -33.845 1.942 65 58 39
-15.763 -33.802 1.942 66 62 53
-15.761 -33.758 1.942 96 93 76
-15.758 -33.715 1.942 145 140 121
-15.761 -33.671 1.942 134 129 110
-15.758 -33.627 1.942 144 139 120
-15.755 -33.583 1.942 130 125 106
-15.748 -33.540 1.941 101 89 75
-15.743 -33.496 1.941 97 96 76
-15.744 -33.450 1.941 202 194 158
-15.730 -33.408 1.941 160 162 141
-15.722 -33.364 1.941 166 159 149
-15.714 -33.319 1.941 200 198 183
-15.706 -33.275 1.940 172 169 150
-15.696 -33.230 1.940 160 153 137
-15.682 -33.188 1.940 171 165 151
-15.667 -33.144 1.940 214 208 192
-15.650 -33.102 1.940 170 165 146
-15.633 -33.060 1.940 149 142 126
-15.617 -33.017 1.939 160 163 144
-15.602 -32.973 1.939 159 153 137
-15.581 -32.932 1.939 163 157 141
-15.559 -32.892 1.939 219 207 185
-15.537 -32.851 1.939 172 166 150
-15.516 -32.809 1.938 174 166 147
-15.492 -32.770 1.938 168 161 142
-15.467 -32.730 1.938 170 161 144
-15.444 -32.689 1.938 160 157 142
-15.419 -32.648 1.937 159 157 144
-15.395 -32.607 1.937 142 125 105
-15.360 -32.575 1.937 81 68 52
-15.331 -32.537 1.937 98 92 78
-15.299 -32.502 1.937 94 91 76
-15.263 -32.471 1.937 147 148 132
-15.228 -32.439 1.937 142 141 121
-15.192 -32.408 1.937 143 141 120
-15.157 -32.376 1.937 153 151 130
-15.120 -32.345 1.936 72 70 49
-15.083 -32.315 1.936 93 91 76
-15.045 -32.286 1.936 112 110 85
-15.010 -32.252 1.936 211 208 177
-14.968 -32.228 1.936 116 113 96
-14.928 -32.201 1.936 105 109 92
-14.886 -32.178 1.936 103 111 90
-14.844 -32.155 1.936 145 153 132
-14.801 -32.132 1.936 144 152 131
-14.758 -32.109 1.935 136 145 124
-14.714 -32.088 1.935 141 149 128
-14.670 -32.069 1.935 154 162 141
-14.625 -32.050 1.935 104 109 89
-14.579 -32.034 1.935 111 115 101
-14.535 -32.011 1.935 76 59 33
-14.491 -31.986 1.934 79 59 34
-14.443 -31.974 1.934 105 100 81
-14.395 -31.962 1.934 106 99 83
-14.347 -31.952 1.934 98 91 72
-14.299 -31.936 1.934 161 155 133
-14.251 -31.922 1.934 141 134 115
-14.203 -31.909 1.933 150 141 124
-14.153 -31.898 1.933 165 156 139
-14.104 -31.890 1.933 159 150 133
-14.054 -31.873 1.933 110 101 84
-14.003 -32.168 1.913 36 44 20
-13.961 -32.187 1.914 16 28 6
-13.919 -32.204 1.915 29 44 23
-13.877 -32.219 1.916 33 46 28
-13.837 -32.238 1.916 21 33 23
-13.797 -32.256 1.917 25 36 19
-13.758 -32.274 1.918 21 30 13
-13.718 -32.289 1.918 48 57 26
-13.680 -32.305 1.919 67 79 39
-13.644 -32.329 1.919 40 51 17
-13.606 -32.344 1.920 56 68 18
-13.566 -32.352 1.919 68 81 27
-13.525 -32.354 1.919 56 62 18
-13.478 -32.341 1.918 58 66 29
-13.434 -32.339 1.917 55 68 42
-13.391 -32.344 1.916 55 63 40
-13.348 -32.348 1.916 57 65 42
-13.306 -32.359 1.916 36 43 25
-13.267 -32.374 1.915 43 49 35
-13.226 -32.387 1.915 46 54 33
-13.186 -32.403 1.915 55 63 48
-13.150 -32.424 1.915 43 46 35
-13.117 -32.452 1.915 49 50 36
-13.082 -32.476 1.915 62 59 44
-13.045 -32.497 1.915 80 81 65
-13.009 -32.519 1.915 54 60 48
-12.977 -32.547 1.915 18 25 18
-12.946 -32.577 1.916 25 29 15
-12.918 -32.609 1.916 44 49 29
-12.889 -32.640 1.916 49 52 43
-12.862 -32.672 1.917 20 21 23
-12.835 -32.704 1.917 27 29 28
-12.812 -32.740 1.917 27 32 25
-12.793 -32.779 1.918 23 29 15
-12.774 -32.817 1.918 50 56 30
-12.746 -32.847 1.918 86 93 52
-12.718 -32.876 1.918 63 73 23
-12.695 -32.911 1.918 59 70 30
-12.674 -32.945 1.919 56 62 34
-12.659 -32.985 1.919 52 58 20
-12.636 -33.018 1.919 85 95 45
-12.614 -33.051 1.919 63 73 20
-12.593 -33.086 1.919 80 90 37
-12.586 -33.128 1.920 60 69 24
-12.572 -33.166 1.920 29 37 0
-12.556 -33.203 1.920 61 68 24
-12.545 -33.241 1.921 79 87 38
-12.538 -33.282 1.921 43 48 16
-12.531 -33.322 1.922 50 59 32
-12.525 -33.361 1.922 58 69 39
-12.524 -33.402 1.923 47 58 28
-12.527 -33.444 1.924 70 81 51
-12.529 -33.484 1.924 44 52 13
-12.525 -33.522 1.925 86 92 54
-12.522 -33.560 1.925 75 81 45
-12.523 -33.599 1.925 77 84 43
-12.529 -33.638 1.926 73 82 39
-12.541 -33.678 1.927 61 71 36
-12.556 -33.717 1.928 48 56 32
-12.571 -33.755 1.929 37 45 21
-12.592 -33.792 1.930 36 41 18
-12.629 -33.830 1.932 41 43 6
-12.667 -33.866 1.934 99 101 51
-12.690 -33.899 1.935 84 89 35
-12.707 -33.931 1.936 73 77 27
-12.727 -33.963 1.937 106 109 62
-12.747 -33.993 1.938 95 98 53
-12.762 -34.023 1.939 87 89 40
-12.778 -34.052 1.939 87 94 40
-12.802 -34.080 1.941 42 49 18
-12.804 -34.109 1.940 42 51 22
-12.794 -34.141 1.940 83 90 49
-12.782 -34.174 1.939 80 82 42
-12.762 -34.210 1.937 44 52 5
-12.748 -34.246 1.936 83 96 50
-12.742 -34.280 1.936 65 73 36
-12.726 -34.319 1.934 130 136 100
-12.744 -34.347 1.935 83 89 51
-12.766 -34.374 1.935 81 88 47
-12.778 -34.404 1.935 70 76 42
-12.795 -34.432 1.936 59 64 34
-12.808 -34.461 1.936 52 55 28
-12.817 -34.492 1.936 50 53 26
-12.827 -34.524 1.935 61 64 37
-12.840 -34.553 1.935 98 106 69
-12.860 -34.579 1.935 70 75 43
-12.881 -34.604 1.936 61 61 37
-12.895 -34.633 1.936 111 110 82
-12.910 -34.662 1.935 63 58 36
-12.924 -34.692 1.935 82 76 52
-12.937 -34.723 1.935 148 144 119
-12.949 -34.754 1.934 100 101 87
-12.958 -34.789 1.934 149 155 151
-12.972 -34.821 1.933 18 21 26
-12.994 -34.846 1.933 119 119 127
-13.016 -34.871 1.933 15 16 11
-13.044 -34.891 1.933 252 250 235
-13.070 -34.912 1.933 251 248 233
-13.115 -34.912 1.935 253 249 238
-8.395 -40.433 1.578 114 109 103
-8.462 -40.684 1.571 82 84 81
-8.622 -40.827 1.570 74 78 77
-8.759 -41.002 1.568 83 85 84
-13.258 -34.989 1.936 15 14 19
-13.308 -34.972 1.939 110 109 115
-13.328 -34.997 1.938 21 22 27
-13.350 -35.021 1.938 33 34 38
-13.368 -35.054 1.937 23 24 28
-13.388 -35.084 1.936 30 31 36
-13.408 -35.114 1.935 44 45 47
-13.431 -35.142 1.934 73 69 66
-13.456 -35.167 1.934 198 191 181
-13.484 -35.186 1.933 50 44 32
-13.514 -35.201 1.933 145 138 128
-13.543 -35.217 1.933 167 162 156
-13.573 -35.234 1.933 30 26 23
-13.603 -35.251 1.932 10 10 10
-13.634 -35.268 1.932 99 100 102
-13.665 -35.284 1.931 32 34 33
-13.695 -35.304 1.931 19 21 18
-13.727 -35.319 1.931 203 201 188
-13.761 -35.326 1.930 187 182 178
-13.795 -35.333 1.930 38 33 37
-13.829 -35.344 1.930 44 42 43
-13.863 -35.353 1.930 203 201 202
-13.898 -35.356 1.930 68 69 73
-13.933 -35.359 1.930 101 110 117
-13.968 -35.364 1.930 113 127 138
-14.003 -35.373 1.929 129 147 157
-14.039 -35.379 1.929 115 130 149
-14.075 -35.387 1.928 243 243 235
-14.111 -35.388 1.928 115 121 121
-14.147 -35.389 1.928 113 130 148
-14.184 -35.393 1.928 93 111 125
-14.220 -35.393 1.927 120 138 152
-14.256 -35.390 1.927 100 118 132
-14.292 -35.384 1.927 106 128 141
-14.328 -35.376 1.927 113 126 132
-14.365 -35.374 1.927 121 139 151
-14.402 -35.373 1.927 116 136 147
-14.440 -35.370 1.926 255 252 243
-14.476 -35.363 1.926 197 191 175
-14.511 -35.349 1.926 193 187 171
-14.546 -35.338 1.926 174 168 152
-14.584 -35.333 1.925 194 181 162
-14.617 -35.316 1.926 169 169 161
-14.648 -35.295 1.926 105 123 133
-14.683 -35.281 1.926 86 112 127
-14.718 -35.269 1.926 91 124 143
-14.751 -35.251 1.925 83 112 130
-14.786 -35.238 1.925 111 135 147
-14.820 -35.220 1.925 102 119 126
-14.853 -35.203 1.925 178 173 167
-14.864 -35.153 1.927 27 24 17
-14.875 -35.107 1.928 37 39 36
-14.894 -35.072 1.929 152 148 139
-14.913 -35.039 1.930 119 110 103
-14.924 -34.999 1.931 54 46 35
-14.940 -34.965 1.931 124 116 103
-14.954 -34.930 1.932 176 167 158
-14.966 -34.894 1.933 176 167 158
-14.978 -34.860 1.934 172 163 154
-14.988 -34.824 1.935 180 172 161
-14.990 -34.782 1.936 181 173 160
-14.993 -34.743 1.937 174 165 150
-14.993 -34.704 1.938 183 173 164
-15.003 -34.672 1.939 187 178 173
-14.999 -34.633 1.940 173 166 156
-14.993 -34.593 1.942 177 168 153
-14.998 -34.561 1.942 109 102 92
-15.348 -34.737 1.923 233 227 205
-15.453 -34.752 1.918 151 131 106
-15.482 -34.722 1.918 128 94 84
-15.507 -34.688 1.917 132 97 91
-15.525 -34.651 1.917 129 95 86
-15.542 -34.613 1.917 125 92 73
-15.579 -34.584 1.916 229 209 172
-15.593 -34.544 1.916 152 136 121
-15.602 -34.503 1.917 146 137 128
-15.616 -34.464 1.917 223 225 204
-15.632 -34.425 1.916 140 132 121
-15.650 -34.387 1.916 155 149 135
-15.670 -34.349 1.916 220 210 198
-15.686 -34.309 1.915 148 141 133
-15.701 -34.269 1.915 174 157 149
-15.716 -34.228 1.915 129 90 73
-15.730 -34.187 1.914 120 78 66
-15.740 -34.146 1.914 135 101 92
-15.749 -34.103 1.914 134 91 85
-15.755 -34.061 1.914 137 92 87
-15.758 -34.018 1.914 139 94 89
-15.763 -33.975 1.914 133 88 83
-15.767 -33.931 1.913 115 72 65
-15.777 -33.888 1.913 255 215 196
-15.774 -33.844 1.913 139 89 80
-15.771 -33.801 1.913 134 82 84
-15.768 -33.758 1.913 139 89 82
-15.764 -33.714 1.913 149 96 88
-15.767 -33.670 1.912 143 90 82
-15.766 -33.626 1.912 142 89 81
-15.763 -33.581 1.912 129 89 77
-15.754 -33.538 1.912 122 82 74
-15.751 -33.494 1.911 129 100 86
-15.751 -33.448 1.911 239 203 177
-15.738 -33.405 1.911 161 155 139
-15.729 -33.361 1.911 161 157 146
-15.719 -33.317 1.910 213 211 196
-15.713 -33.272 1.910 184 179 159
-15.702 -33.228 1.910 164 155 140
-15.691 -33.183 1.909 170 162 149
-15.677 -33.140 1.909 210 203 187
-15.660 -33.098 1.909 188 181 163
-15.641 -33.056 1.909 152 143 126
-15.627 -33.011 1.908 161 163 142
-15.609 -32.969 1.908 155 148 130
-15.590 -32.927 1.908 182 175 157
-15.565 -32.888 1.908 217 205 181
-15.540 -32.849 1.908 170 164 148
-15.519 -32.807 1.907 168 160 141
-15.495 -32.767 1.907 179 172 153
-15.471 -32.727 1.907 185 173 157
-15.446 -32.687 1.906 161 159 146
-15.420 -32.647 1.906 157 157 145
-15.400 -32.601 1.905 168 148 124
-15.365 -32.570 1.905 135 86 72
-15.334 -32.534 1.905 141 84 77
-15.302 -32.499 1.905 138 81 74
-15.266 -32.467 1.905 148 89 83
-15.231 -32.435 1.905 142 88 78
-15.196 -32.403 1.905 145 93 82
-15.159 -32.373 1.905 157 100 91
-15.122 -32.343 1.905 129 70 62
-15.085 -32.312 1.904 139 81 77
-15.047 -32.283 1.904 149 96 80
-15.015 -32.244 1.903 255 204 182
-14.973 -32.221 1.903 151 96 89
-14.932 -32.194 1.903 157 104 100
-14.891 -32.169 1.903 158 105 99
-14.848 -32.145 1.903 195 142 136
-14.806 -32.121 1.903 188 135 129
-14.763 -32.098 1.903 179 130 123
-14.718 -32.080 1.902 187 138 131
-14.673 -32.061 1.902 186 133 127
-14.628 -32.042 1.902 154 96 92
-14.581 -32.027 1.902 137 102 96
-14.537 -32.005 1.902 108 80 56
-14.492 -31.980 1.901 117 102 73
-14.444 -31.969 1.901 112 86 71
-14.397 -31.955 1.901 114 67 57
-14.348 -31.944 1.901 155 107 95
-14.301 -31.928 1.901 182 135 119
-14.252 -31.913 1.900 164 116 104
-14.204 -31.897 1.900 176 140 126
-14.154 -31.890 1.899 164 131 116
-14.104 -31.885 1.899 158 125 110
-14.054 -31.878 1.899 137 104 89
-14.003 -32.173 1.885 20 28 17
-13.961 -32.190 1.886 15 26 12
-13.919 -32.204 1.887 21 32 16
-13.877 -32.220 1.888 16 27 13
-13.837 -32.239 1.889 17 27 19
-13.797 -32.255 1.889 14 24 13
-13.757 -32.273 1.890 17 28 14
-13.718 -32.286 1.891 21 32 15
-13.679 -32.303 1.891 25 37 15
-13.642 -32.321 1.892 26 39 13
-13.604 -32.336 1.892 46 58 20
-13.564 -32.343 1.892 69 81 33
-13.523 -32.348 1.892 69 78 31
-13.478 -32.341 1.890 71 79 42
-13.435 -32.341 1.889 53 61 40
-13.391 -32.345 1.889 48 52 35
-13.347 -32.346 1.888 57 62 40
-13.308 -32.361 1.887 42 47 27
-13.268 -32.377 1.887 45 49 32
-13.229 -32.392 1.887 59 63 46
-13.189 -32.407 1.887 31 34 23
-13.153 -32.429 1.887 34 37 28
-13.119 -32.455 1.887 46 48 35
-13.082 -32.477 1.887 48 45 28
-13.046 -32.498 1.887 88 82 66
-13.010 -32.520 1.887 68 65 50
-12.978 -32.548 1.887 59 60 46
-12.945 -32.575 1.887 79 80 64
-12.918 -32.608 1.888 70 75 55
-12.890 -32.640 1.888 49 55 45
-12.864 -32.674 1.889 18 22 21
-12.837 -32.706 1.889 24 28 29
-12.815 -32.743 1.890 22 26 25
-12.796 -32.781 1.891 27 32 28
-12.776 -32.819 1.891 66 69 60
-12.749 -32.850 1.891 65 69 46
-12.721 -32.879 1.891 60 66 22
-12.697 -32.911 1.891 89 92 49
-12.672 -32.944 1.891 60 61 17
-12.642 -32.973 1.891 113 115 50
-12.619 -33.006 1.891 53 62 0
-12.602 -33.044 1.891 87 97 34
-12.585 -33.081 1.892 60 70 9
-12.570 -33.119 1.892 87 94 40
-12.556 -33.158 1.892 64 71 20
-12.538 -33.194 1.892 81 88 34
-12.528 -33.234 1.893 92 97 41
-12.527 -33.277 1.894 69 74 20
-12.528 -33.320 1.895 47 50 21
-12.524 -33.361 1.896 47 55 32
-12.518 -33.400 1.897 40 50 25
-12.519 -33.441 1.898 67 76 45
-12.514 -33.479 1.898 90 98 59
-12.511 -33.518 1.899 46 53 20
-12.514 -33.558 1.899 39 45 17
-12.516 -33.597 1.900 58 63 31
-12.520 -33.636 1.901 82 90 53
-12.536 -33.677 1.902 51 61 27
-12.552 -33.716 1.904 58 64 36
-12.567 -33.754 1.905 48 53 21
-12.586 -33.792 1.907 68 78 43
-12.612 -33.829 1.909 69 77 38
-12.643 -33.865 1.911 82 90 41
-12.657 -33.898 1.912 68 76 25
-12.673 -33.931 1.913 69 77 28
-12.689 -33.964 1.914 77 85 38
-12.706 -33.995 1.915 47 53 7
-12.724 -34.026 1.916 84 91 40
-12.745 -34.055 1.917 81 84 37
-12.769 -34.084 1.918 83 85 46
-12.780 -34.113 1.919 85 89 56
-12.774 -34.145 1.918 43 44 13
-12.763 -34.178 1.917 72 74 35
-12.745 -34.214 1.915 83 90 46
-12.734 -34.249 1.914 74 86 40
-12.727 -34.285 1.913 63 69 35
-12.721 -34.320 1.912 65 70 40
-12.731 -34.352 1.912 61 68 26
-12.756 -34.378 1.913 60 66 18
-11.282 -34.981 1.809 97 100 73
-9.255 -35.898 1.663 111 109 94
-9.031 -36.135 1.644 126 124 109
-9.729 -35.953 1.690 122 120 107
-9.976 -35.958 1.704 121 119 104
-10.001 -36.071 1.703 121 120 100
-9.690 -36.375 1.675 144 142 127
-9.177 -36.824 1.631 137 135 122
-9.758 -36.620 1.671 130 127 112
-10.223 -36.457 1.702 122 121 103
-10.409 -36.463 1.712 144 143 123
-11.209 -36.004 1.772 143 141 120
-12.095 -35.420 1.841 140 137 120
-12.938 -34.806 1.910 168 166 154
-12.972 -34.821 1.911 102 99 94
-12.983 -34.856 1.910 117 112 108
-12.988 -34.898 1.908 51 45 31
-13.010 -34.925 1.908 252 245 227
-13.043 -34.940 1.909 255 255 239
-13.093 -34.936 1.911 254 250 241
-8.415 -40.410 1.439 97 94 89
-8.483 -40.658 1.430 92 92 92
-8.645 -40.798 1.429 69 70 74
-8.796 -40.953 1.427 78 78 78
-13.254 -34.995 1.915 186 181 177
-13.307 -34.974 1.918 198 194 185
-13.327 -34.999 1.917 201 197 188
-13.344 -35.031 1.916 132 128 119
-13.362 -35.064 1.915 52 47 41
-13.382 -35.094 1.914 31 28 23
-13.405 -35.120 1.913 38 34 25
-13.430 -35.144 1.912 242 235 217
-13.454 -35.171 1.911 253 240 224
-13.480 -35.195 1.910 250 236 223
-13.510 -35.210 1.910 251 237 224
-13.540 -35.227 1.910 255 243 230
-13.569 -35.246 1.909 252 238 225
-13.599 -35.263 1.909 243 229 218
-13.630 -35.281 1.908 246 234 222
-13.661 -35.298 1.908 245 235 223
-13.692 -35.317 1.907 182 174 161
-13.725 -35.329 1.907 248 239 222
-13.759 -35.338 1.906 251 241 229
-13.793 -35.348 1.906 245 235 225
-13.828 -35.358 1.906 247 237 225
-13.862 -35.365 1.906 251 237 224
-13.897 -35.370 1.905 248 234 223
-13.932 -35.376 1.905 250 238 224
-13.968 -35.383 1.905 248 239 224
-14.003 -35.390 1.904 247 241 225
-14.039 -35.393 1.904 181 173 162
-14.076 -35.400 1.904 250 237 220
-14.112 -35.402 1.903 248 236 222
-14.149 -35.405 1.903 240 231 224
-14.186 -35.409 1.902 236 227 220
-14.223 -35.408 1.902 237 230 222
-14.259 -35.404 1.902 238 231 223
-14.295 -35.399 1.902 229 223 211
-14.331 -35.391 1.902 238 230 217
-14.368 -35.388 1.902 237 231 219
-14.406 -35.387 1.901 238 232 220
-14.445 -35.386 1.900 234 227 211
-14.481 -35.376 1.900 242 233 218
-14.516 -35.364 1.900 244 232 218
-14.553 -35.356 1.900 239 233 219
-14.589 -35.346 1.900 244 235 220
-14.623 -35.330 1.900 241 233 222
-14.658 -35.314 1.900 240 233 223
-14.692 -35.300 1.900 237 230 220
-14.727 -35.285 1.899 237 234 225
-14.761 -35.268 1.899 232 229 220
-14.796 -35.253 1.899 235 231 220
-14.830 -35.237 1.899 229 223 211
-14.862 -35.217 1.899 157 151 137
-14.869 -35.160 1.901 125 121 109
-14.880 -35.113 1.904 34 30 19
-14.899 -35.079 1.905 167 161 149
-14.916 -35.043 1.906 177 171 157
-14.926 -35.001 1.907 29 19 10
-14.941 -34.966 1.908 156 148 137
-14.951 -34.927 1.910 59 54 48
-14.963 -34.891 1.911 49 46 41
-14.973 -34.855 1.912 70 67 60
-14.985 -34.821 1.913 170 167 158
-14.991 -34.783 1.915 168 160 147
-15.001 -34.750 1.915 167 155 141
-15.002 -34.711 1.917 181 171 162
-15.008 -34.676 1.918 177 168 159
-15.007 -34.638 1.920 180 168 154
-15.000 -34.597 1.921 163 156 140
-15.002 -34.563 1.923 173 174 168
-15.404 -34.771 1.893 205 190 167
-15.466 -34.760 1.890 161 150 120
-15.491 -34.727 1.889 157 152 133
-15.517 -34.693 1.889 160 152 129
-15.535 -34.656 1.889 158 153 133
-15.553 -34.618 1.889 157 152 122
-15.588 -34.588 1.888 227 213 174
-15.601 -34.548 1.888 157 145 129
-15.611 -34.507 1.888 159 144 137
-15.626 -34.467 1.888 166 161 142
-15.640 -34.428 1.888 167 158 143
-15.658 -34.389 1.887 172 163 146
-15.677 -34.351 1.887 167 155 139
-15.693 -34.311 1.887 144 138 124
-15.708 -34.270 1.886 149 146 127
-15.724 -34.230 1.886 162 156 140
-15.738 -34.189 1.885 163 150 134
-15.748 -34.147 1.885 172 160 146
-15.757 -34.104 1.885 161 158 139
-15.763 -34.061 1.884 159 158 137
-15.770 -34.018 1.884 155 154 133
-15.772 -33.975 1.884 159 158 137
-15.776 -33.931 1.884 79 81 67
-15.789 -33.888 1.883 232 227 198
-15.790 -33.844 1.883 167 161 139
-15.786 -33.800 1.883 159 152 142
-15.786 -33.756 1.883 167 162 142
-15.779 -33.712 1.883 159 156 137
-15.780 -33.668 1.882 166 163 144
-15.777 -33.624 1.882 154 151 132
-15.773 -33.579 1.882 163 152 130
-15.768 -33.535 1.881 161 152 137
-15.762 -33.491 1.881 161 157 128
-15.763 -33.444 1.880 211 195 159
-15.749 -33.402 1.880 162 155 139
-15.743 -33.357 1.880 155 157 144
-15.731 -33.313 1.880 168 159 144
-15.720 -33.269 1.879 164 166 142
-15.708 -33.225 1.879 171 164 148
-15.699 -33.180 1.878 170 164 148
-15.683 -33.137 1.878 163 154 137
-15.667 -33.094 1.878 169 164 144
-15.648 -33.052 1.878 146 137 122
-15.633 -33.008 1.877 160 161 145
-15.615 -32.965 1.877 150 143 127
-15.594 -32.924 1.877 172 164 145
-15.572 -32.883 1.876 167 153 126
-15.544 -32.847 1.877 169 162 144
-15.523 -32.804 1.876 177 169 150
-15.500 -32.764 1.876 168 163 141
-15.475 -32.724 1.875 170 159 141
-15.449 -32.685 1.875 164 156 145
-15.423 -32.645 1.874 143 155 141
-15.403 -32.599 1.873 222 198 160
-15.369 -32.566 1.873 177 169 146
-15.338 -32.529 1.873 168 162 138
-15.305 -32.495 1.873 168 162 138
-15.270 -32.463 1.873 174 168 144
-15.234 -32.431 1.873 170 165 145
-15.199 -32.400 1.873 174 169 149
-15.162 -32.369 1.872 165 160 138
-15.125 -32.338 1.872 173 168 146
-15.089 -32.306 1.872 171 160 142
-15.052 -32.276 1.872 155 160 128
-15.017 -32.241 1.871 215 205 180
-14.978 -32.212 1.870 163 167 140
-14.938 -32.182 1.870 174 166 143
-14.896 -32.157 1.870 169 162 136
-14.854 -32.133 1.870 165 158 132
-14.810 -32.111 1.869 165 158 132
-14.767 -32.089 1.869 168 162 138
-14.722 -32.067 1.869 167 161 139
-14.677 -32.049 1.869 168 160 139
-14.631 -32.031 1.869 167 159 138
-14.585 -32.014 1.869 173 158 135
-14.539 -31.995 1.868 167 147 122
-14.494 -31.974 1.868 168 160 124
-14.446 -31.961 1.868 165 150 119
-14.398 -31.949 1.868 174 158 125
-14.349 -31.939 1.867 176 162 135
-14.302 -31.918 1.867 168 154 127
-14.253 -31.906 1.866 164 149 126
-14.205 -31.890 1.866 169 155 128
-14.155 -31.881 1.865 170 154 121
-14.104 -31.876 1.865 171 161 134
-14.054 -31.866 1.865 165 158 132
-14.003 -32.178 1.856 16 26 17
-13.961 -32.197 1.858 16 26 17
-13.919 -32.210 1.859 17 27 18
-13.878 -32.225 1.860 20 30 21
-13.837 -32.241 1.861 22 32 23
-13.797 -32.254 1.861 16 26 15
-13.757 -32.270 1.862 21 32 18
-13.718 -32.284 1.863 17 28 14
-13.679 -32.302 1.864 21 34 17
-13.641 -32.320 1.865 22 33 16
-13.605 -32.341 1.866 33 42 21
-13.565 -32.348 1.865 42 50 26
-13.524 -32.351 1.865 48 55 22
-13.479 -32.344 1.863 61 68 37
-13.436 -32.345 1.862 53 58 35
-13.391 -32.345 1.861 40 45 23
-13.347 -32.347 1.859 52 57 35
-13.307 -32.361 1.859 49 54 34
-13.268 -32.376 1.859 58 63 43
-13.229 -32.393 1.859 46 50 33
-13.190 -32.409 1.859 25 27 16
-13.154 -32.431 1.859 23 26 19
-13.120 -32.457 1.859 45 47 36
-13.081 -32.475 1.859 79 76 59
-13.045 -32.497 1.859 90 88 67
-13.006 -32.515 1.858 76 75 57
-12.972 -32.541 1.858 65 67 53
-12.942 -32.572 1.859 69 72 61
-12.917 -32.607 1.860 47 54 38
-12.888 -32.638 1.860 53 59 49
-12.864 -32.674 1.861 22 26 27
-12.838 -32.707 1.861 19 23 24
-12.816 -32.744 1.862 24 29 25
-12.798 -32.783 1.864 26 31 25
-12.778 -32.821 1.864 32 35 24
-12.751 -32.851 1.864 46 49 28
-12.721 -32.879 1.864 81 82 42
-12.692 -32.908 1.864 87 87 35
-12.659 -32.934 1.863 114 119 55
-12.631 -32.965 1.862 76 80 19
-12.612 -33.002 1.863 100 108 49
-12.594 -33.039 1.863 92 100 40
-12.575 -33.075 1.863 74 82 22
-12.557 -33.112 1.864 78 86 29
-12.541 -33.150 1.864 80 86 40
-12.525 -33.187 1.864 63 69 23
-12.516 -33.228 1.865 78 82 32
-12.512 -33.270 1.866 83 86 33
-12.517 -33.316 1.868 64 67 22
-12.520 -33.359 1.870 29 36 3
-12.517 -33.400 1.871 46 54 31
-12.517 -33.440 1.872 80 85 55
-12.514 -33.479 1.872 65 70 30
-12.511 -33.518 1.873 63 69 31
-12.513 -33.558 1.874 45 50 18
-12.517 -33.598 1.875 66 72 36
-12.525 -33.637 1.876 64 72 35
-12.538 -33.677 1.878 47 56 27
-12.549 -33.716 1.879 36 44 20
-12.558 -33.753 1.881 43 51 27
-12.569 -33.790 1.882 36 47 17
-12.590 -33.827 1.884 43 54 22
-12.612 -33.863 1.886 56 68 32
-12.632 -33.898 1.887 63 75 35
-12.648 -33.931 1.889 68 76 37
-12.665 -33.964 1.890 56 64 23
-12.684 -33.996 1.892 72 79 35
-12.698 -34.028 1.893 82 88 42
-12.712 -34.059 1.894 86 92 48
-12.726 -34.089 1.894 71 76 36
-12.735 -34.119 1.895 44 48 11
-12.735 -34.152 1.894 104 108 73
-12.729 -34.185 1.893 50 56 18
-12.723 -34.219 1.892 55 64 21
-12.720 -34.253 1.892 74 87 41
-12.712 -34.289 1.890 74 80 42
-12.710 -34.324 1.889 53 60 27
-12.716 -34.357 1.889 74 82 41
-12.761 -34.376 1.892 54 61 19
-8.175 -36.180 1.488 92 93 77
-8.152 -36.355 1.481 49 45 44
-8.192 -36.507 1.479 43 37 37
-8.229 -36.663 1.476 55 49 49
-8.264 -36.820 1.473 63 57 57
-8.308 -36.976 1.470 63 57 57
-8.356 -37.130 1.468 86 80 80
-8.411 -37.283 1.465 57 51 51
-8.465 -37.439 1.462 65 59 59
-8.530 -37.589 1.460 74 70 69
-8.608 -37.731 1.459 130 125 122
-8.695 -37.869 1.458 107 99 96
-8.776 -38.011 1.456 134 124 122
-8.864 -38.149 1.455 158 149 140
-8.959 -38.283 1.454 168 159 150
-9.039 -38.431 1.451 146 137 128
-9.121 -38.580 1.447 190 184 170
-9.175 -38.760 1.440 161 153 140
-9.241 -38.933 1.434 109 102 92
-9.126 -39.313 1.404 119 116 109
-8.425 -40.399 1.300 91 91 89
-8.505 -40.632 1.289 107 107 109
-8.660 -40.778 1.288 110 111 115
-8.854 -40.874 1.291 107 107 107
-12.913 -35.480 1.845 119 112 106
-13.066 -35.334 1.862 165 158 148
-13.258 -35.108 1.886 204 197 187
-13.306 -35.095 1.889 198 191 181
-13.338 -35.106 1.889 189 182 172
-13.364 -35.127 1.889 192 185 179
-13.391 -35.148 1.888 192 183 174
-13.416 -35.172 1.887 246 237 222
-13.441 -35.200 1.886 255 241 228
-13.469 -35.222 1.885 254 240 227
-13.501 -35.234 1.886 252 238 225
-13.534 -35.244 1.886 253 240 224
-13.566 -35.255 1.886 255 244 227
-13.597 -35.272 1.885 248 232 217
-13.628 -35.288 1.885 254 238 223
-13.659 -35.308 1.884 254 241 225
-13.690 -35.325 1.883 186 174 158
-13.723 -35.339 1.882 253 240 224
-13.757 -35.349 1.882 253 240 223
-13.791 -35.360 1.882 250 237 220
-13.826 -35.370 1.881 254 241 224
-13.861 -35.378 1.881 254 238 222
-13.896 -35.385 1.881 254 238 223
-13.932 -35.391 1.880 255 240 225
-13.967 -35.397 1.880 255 240 227
-14.003 -35.402 1.879 249 237 223
-14.040 -35.403 1.879 170 158 144
-14.076 -35.413 1.878 249 235 222
-14.113 -35.416 1.878 253 237 222
-14.150 -35.421 1.877 252 234 220
-14.188 -35.424 1.877 248 232 217
-14.224 -35.421 1.876 248 235 219
-14.261 -35.418 1.876 246 234 218
-14.299 -35.415 1.876 236 227 212
-14.335 -35.407 1.876 237 228 213
-14.372 -35.401 1.876 238 229 214
-14.409 -35.398 1.875 228 219 204
-14.448 -35.397 1.874 248 239 222
-14.485 -35.388 1.874 246 234 220
-14.520 -35.374 1.874 247 233 220
-14.557 -35.365 1.874 237 229 216
-14.595 -35.360 1.873 245 233 219
-14.630 -35.344 1.873 247 233 220
-14.666 -35.333 1.873 247 233 220
-14.703 -35.320 1.872 244 230 217
-14.735 -35.301 1.873 247 235 221
-14.770 -35.285 1.872 245 233 219
-14.803 -35.265 1.873 245 233 219
-14.837 -35.247 1.872 232 220 206
-14.865 -35.221 1.873 194 186 173
-14.882 -35.178 1.875 189 183 169
-14.897 -35.137 1.877 182 176 162
-14.912 -35.095 1.879 182 176 162
-14.925 -35.054 1.881 169 163 147
-14.935 -35.011 1.883 102 91 85
-14.948 -34.973 1.885 232 223 208
-14.957 -34.933 1.887 73 69 58
-14.966 -34.894 1.888 62 58 55
-14.972 -34.854 1.890 112 111 107
-14.978 -34.815 1.892 41 38 33
-14.995 -34.787 1.893 80 72 61
-15.003 -34.752 1.894 49 41 30
-15.008 -34.715 1.896 128 123 117
-15.011 -34.679 1.897 173 170 163
-15.012 -34.642 1.899 174 166 155
-15.007 -34.602 1.901 102 46 45
-15.010 -34.569 1.902 109 64 59
-15.419 -34.780 1.865 215 188 167
-15.474 -34.764 1.861 72 101 107
-15.497 -34.730 1.861 31 69 108
-15.521 -34.695 1.861 33 67 105
-15.541 -34.658 1.861 24 63 104
-15.559 -34.621 1.861 39 58 75
-15.596 -34.591 1.859 226 217 188
-15.610 -34.551 1.859 185 173 159
-15.621 -34.510 1.859 173 158 151
-15.636 -34.471 1.859 177 172 153
-15.650 -34.431 1.859 179 173 159
-15.667 -34.392 1.858 180 174 160
-15.685 -34.353 1.858 183 176 160
-15.701 -34.313 1.857 162 160 148
-15.717 -34.272 1.857 150 160 162
-15.734 -34.232 1.856 27 60 91
-15.748 -34.190 1.855 20 57 99
-15.759 -34.148 1.855 27 59 97
-15.766 -34.105 1.855 27 63 99
-15.774 -34.062 1.854 23 59 95
-15.778 -34.019 1.854 31 67 103
-15.784 -33.975 1.854 30 66 102
-15.787 -33.931 1.854 35 63 100
-15.799 -33.887 1.853 216 237 228
-15.799 -33.843 1.853 36 60 96
-15.797 -33.799 1.853 28 66 85
-15.795 -33.755 1.852 32 66 94
-15.792 -33.711 1.852 28 63 91
-15.794 -33.666 1.852 34 69 97
-15.790 -33.621 1.851 29 64 92
-15.787 -33.577 1.851 38 68 96
-15.780 -33.532 1.851 46 72 99
-15.775 -33.488 1.850 61 73 69
-15.778 -33.440 1.849 233 214 184
-15.765 -33.397 1.849 158 146 132
-15.758 -33.352 1.848 146 148 135
-15.744 -33.309 1.848 168 154 141
-15.733 -33.264 1.848 159 164 141
-15.719 -33.221 1.848 168 161 145
-15.712 -33.174 1.847 165 159 143
-15.693 -33.132 1.847 154 147 131
-15.676 -33.089 1.846 164 161 142
-15.661 -33.045 1.846 137 129 116
-15.644 -33.002 1.845 153 154 138
-15.623 -32.961 1.845 138 132 116
-15.603 -32.919 1.845 164 157 141
-15.578 -32.880 1.845 157 145 119
-15.555 -32.838 1.844 162 156 140
-15.531 -32.799 1.844 166 157 140
-15.506 -32.759 1.844 160 154 132
-15.481 -32.718 1.843 169 164 145
-15.454 -32.680 1.843 159 150 133
-15.430 -32.638 1.842 143 156 139
-15.406 -32.596 1.841 182 174 151
-15.373 -32.561 1.841 134 148 149
-15.345 -32.522 1.840 125 139 139
-15.308 -32.492 1.841 128 142 142
-15.274 -32.459 1.841 116 130 130
-15.238 -32.427 1.840 116 128 128
-15.203 -32.395 1.840 119 130 132
-15.167 -32.363 1.840 120 132 132
-15.131 -32.331 1.840 137 149 147
-15.094 -32.299 1.839 143 146 139
-15.055 -32.270 1.839 141 143 140
-15.021 -32.233 1.838 222 199 165
-14.982 -32.204 1.837 166 168 167
-14.942 -32.175 1.837 175 169 157
-14.900 -32.150 1.836 172 166 154
-14.858 -32.124 1.836 165 159 147
-14.814 -32.102 1.836 173 167 155
-14.770 -32.081 1.836 172 172 160
-14.725 -32.060 1.836 165 167 156
-14.680 -32.041 1.835 160 162 151
-14.634 -32.024 1.835 167 169 158
-14.589 -32.002 1.835 155 166 149
-14.542 -31.983 1.834 164 154 129
-14.496 -31.965 1.834 174 165 126
-14.447 -31.955 1.834 152 153 135
-14.399 -31.943 1.834 156 158 119
-14.351 -31.928 1.833 171 172 130
-14.303 -31.913 1.833 158 159 119
-14.254 -31.898 1.832 173 173 135
-14.205 -31.886 1.832 162 161 140
-14.155 -31.873 1.831 160 157 138
-14.105 -31.865 1.830 167 162 142
-14.054 -31.856 1.830 158 151 132
-14.003 -32.189 1.828 18 28 17
-13.961 -32.206 1.830 18 28 17
-13.919 -32.219 1.831 14 24 15
-13.878 -32.229 1.832 18 28 20
-13.837 -32.245 1.833 19 29 20
-13.797 -32.256 1.834 16 26 15
-13.757 -32.271 1.835 19 30 16
-13.718 -32.283 1.835 23 34 20
-13.679 -32.300 1.836 25 37 23
-13.642 -32.320 1.837 27 37 26
-13.606 -32.345 1.839 37 45 32
-13.570 -32.364 1.840 24 30 18
-13.526 -32.356 1.838 40 45 22
-13.482 -32.354 1.836 60 66 38
-13.436 -32.345 1.834 53 60 29
-13.390 -32.341 1.832 65 71 43
-13.348 -32.348 1.831 53 58 35
-13.308 -32.363 1.831 50 55 35
-13.268 -32.377 1.831 62 67 47
-13.231 -32.396 1.831 72 76 59
-13.192 -32.413 1.830 38 41 32
-13.156 -32.435 1.831 25 30 24
-13.122 -32.461 1.831 34 37 28
-13.081 -32.475 1.830 87 85 70
-13.043 -32.495 1.830 76 75 55
-13.000 -32.507 1.828 61 64 47
-12.967 -32.534 1.829 25 31 19
-12.940 -32.569 1.830 43 52 47
-12.916 -32.607 1.831 26 31 24
-12.889 -32.639 1.832 30 35 29
-12.865 -32.675 1.833 22 26 27
-12.838 -32.708 1.834 22 26 25
-12.817 -32.745 1.835 17 21 22
-12.801 -32.787 1.837 31 36 30
-12.780 -32.822 1.837 51 55 38
-12.752 -32.852 1.837 55 59 32
-12.721 -32.879 1.837 80 82 45
-12.687 -32.904 1.836 100 103 48
-12.658 -32.933 1.835 97 104 37
-12.635 -32.967 1.835 92 96 46
-12.615 -33.004 1.836 74 76 27
-12.595 -33.039 1.836 81 84 27
-12.573 -33.074 1.836 77 82 26
-12.556 -33.112 1.836 75 82 31
-12.540 -33.149 1.837 34 39 0
-12.528 -33.189 1.837 60 65 25
-12.517 -33.228 1.838 75 78 35
-12.510 -33.269 1.839 78 80 33
-12.505 -33.311 1.840 92 98 38
-12.510 -33.355 1.842 83 90 48
-12.517 -33.400 1.845 72 75 54
-12.520 -33.441 1.846 66 67 36
-12.517 -33.481 1.847 56 55 9
-12.514 -33.519 1.848 86 88 41
-12.515 -33.558 1.849 93 96 53
-12.521 -33.598 1.850 57 62 22
-12.531 -33.638 1.852 75 82 49
-12.542 -33.678 1.854 48 53 30
-12.551 -33.716 1.855 35 40 20
-12.558 -33.753 1.857 53 61 40
-12.566 -33.790 1.858 41 46 23
-12.580 -33.826 1.859 44 49 26
-12.596 -33.862 1.861 45 57 33
-12.615 -33.897 1.863 35 51 25
-12.634 -33.931 1.865 43 53 28
-12.653 -33.965 1.867 58 67 38
-12.670 -33.997 1.869 72 80 43
-12.683 -34.029 1.870 40 47 5
-12.693 -34.060 1.870 71 78 36
-12.697 -34.092 1.870 45 53 14
-12.701 -34.125 1.870 62 69 35
-12.703 -34.157 1.870 57 65 26
-12.705 -34.190 1.870 51 58 24
-12.706 -34.223 1.869 48 60 20
-12.708 -34.256 1.869 57 70 27
-12.696 -34.293 1.866 63 69 31
-12.701 -34.327 1.866 21 28 0
-12.707 -34.360 1.865 66 76 41
-12.763 -34.375 1.870 43 49 23
-8.140 -36.193 1.381 103 104 98
-8.136 -36.362 1.374 28 24 15
-8.176 -36.514 1.372 106 100 88
-8.208 -36.672 1.369 108 102 90
-8.244 -36.831 1.365 105 99 87
-8.287 -36.987 1.362 112 105 97
-8.334 -37.143 1.358 68 61 55
-8.389 -37.297 1.355 112 105 99
-8.453 -37.446 1.353 102 95 89
-8.522 -37.594 1.351 118 113 107
-8.594 -37.741 1.348 66 59 51
-8.673 -37.885 1.346 139 131 120
-8.760 -38.024 1.345 166 156 144
-8.850 -38.161 1.343 163 151 137
-8.948 -38.292 1.342 156 146 134
-9.039 -38.431 1.340 140 132 121
-9.120 -38.581 1.336 47 40 30
-9.168 -38.766 1.327 175 169 157
-9.223 -38.953 1.317 135 131 122
-9.163 -39.272 1.290 154 153 148
-8.449 -40.370 1.163 89 89 89
-8.514 -40.620 1.148 83 83 85
-8.665 -40.772 1.145 99 100 104
-8.911 -40.798 1.158 95 95 95
-10.136 -39.423 1.338 69 62 56
-10.475 -39.212 1.374 97 90 80
-10.613 -39.286 1.376 119 112 102
-10.785 -39.301 1.383 123 116 106
-10.956 -39.312 1.391 121 114 104
-11.148 -39.273 1.403 118 111 101
-11.816 -38.277 1.521 114 105 96
-13.004 -36.044 1.770 99 90 81
-13.407 -35.276 1.855 95 85 73
-13.445 -35.279 1.856 132 122 110
-13.487 -35.270 1.859 184 174 162
-13.534 -35.244 1.863 227 218 203
-13.565 -35.259 1.862 255 246 229
-13.596 -35.276 1.862 254 242 228
-13.627 -35.292 1.861 254 242 228
-13.658 -35.312 1.860 255 243 229
-13.689 -35.331 1.859 199 185 172
-13.722 -35.346 1.858 255 245 228
-13.756 -35.355 1.858 249 236 219
-13.791 -35.365 1.857 245 232 215
-13.825 -35.377 1.857 250 237 220
-13.860 -35.386 1.856 253 240 223
-13.896 -35.392 1.856 254 241 224
-13.932 -35.395 1.856 252 239 222
-13.967 -35.401 1.855 251 238 222
-14.003 -35.406 1.855 248 236 220
-14.040 -35.406 1.855 165 156 141
-14.077 -35.423 1.853 251 239 225
-14.114 -35.426 1.852 251 237 226
-14.151 -35.428 1.852 248 230 216
-14.188 -35.431 1.851 250 234 219
-14.226 -35.430 1.851 245 232 216
-14.263 -35.427 1.851 246 234 218
