ply
format ascii 1.0
element vertex 1508
property float x
property float y
property float z
property uchar red
property uchar green
property uchar blue
end_header
-15.116 -25.266 -5.316 64 63 58
-16.246 -24.225 -6.999 43 44 38
-16.403 -23.849 -7.388 105 105 107
-16.303 -23.661 -7.431 24 29 33
-16.213 -23.462 -7.497 20 25 31
-16.126 -23.255 -7.577 11 16 22
-16.049 -23.035 -7.680 40 44 45
-16.017 -22.762 -7.864 36 36 36
-19.297 -18.999 -13.364 69 73 72
-19.132 -18.671 -13.505 53 62 61
-18.925 -18.383 -13.592 66 71 74
-18.698 -18.113 -13.659 64 70 70
-18.454 -17.860 -13.708 55 59 60
-18.195 -17.623 -13.743 71 75 74
-17.919 -17.406 -13.759 69 71 68
-17.639 -17.195 -13.776 67 69 64
-17.348 -16.999 -13.783 67 69 64
-17.036 -16.836 -13.755 75 76 71
-14.703 -20.242 -9.212 74 73 69
-13.991 -21.047 -8.055 71 72 66
-13.800 -20.928 -8.075 73 74 68
-13.607 -20.812 -8.096 75 76 70
-13.410 -20.703 -8.115 77 78 72
-13.213 -20.590 -8.144 94 91 84
-13.012 -20.484 -8.170 106 101 95
-12.809 -20.381 -8.199 112 108 99
-12.605 -20.275 -8.236 101 97 86
-12.396 -20.177 -8.269 89 80 71
-12.185 -20.084 -8.303 84 75 66
-11.970 -20.001 -8.332 87 78 69
-11.751 -19.926 -8.356 88 79 70
-11.529 -19.861 -8.376 85 77 66
-11.305 -19.802 -8.395 91 83 72
-11.080 -19.744 -8.418 72 64 53
-10.853 -19.693 -8.440 80 72 61
-10.624 -19.648 -8.461 96 90 78
-10.393 -19.614 -8.477 99 93 79
-10.161 -19.585 -8.493 105 98 82
-9.929 -19.558 -8.513 108 99 82
-9.695 -19.644 -8.764 48 57 56
-9.463 -19.651 -8.759 48 56 58
-9.232 -19.676 -8.741 45 53 56
-9.003 -19.704 -8.725 48 55 61
-8.774 -19.734 -8.713 50 58 60
-8.546 -19.772 -8.699 48 56 58
-8.320 -19.814 -8.686 50 58 60
-8.094 -19.859 -8.676 51 59 61
-7.870 -19.908 -8.668 49 57 59
-7.647 -19.963 -8.659 47 55 58
-7.425 -20.024 -8.650 50 58 61
-7.206 -20.092 -8.639 48 56 59
-6.989 -20.164 -8.628 53 61 64
-6.774 -20.242 -8.618 51 58 64
-6.561 -20.325 -8.608 49 56 62
-6.350 -20.412 -8.598 50 57 63
-6.141 -20.506 -8.588 51 59 61
-5.936 -20.604 -8.577 51 59 61
-5.733 -20.708 -8.565 52 60 62
-5.534 -20.819 -8.551 52 60 62
-5.339 -20.935 -8.537 49 57 59
-5.146 -21.054 -8.524 51 59 62
-4.955 -21.176 -8.513 49 57 60
-4.767 -21.303 -8.502 51 59 62
-4.583 -21.434 -8.492 52 60 63
-4.402 -21.569 -8.481 52 59 65
-4.224 -21.708 -8.472 54 61 67
-4.051 -21.852 -8.461 51 58 64
-3.880 -21.999 -8.452 51 59 62
-3.714 -22.150 -8.442 51 59 62
-3.550 -22.305 -8.433 51 59 62
-3.391 -22.463 -8.424 52 60 63
-3.237 -22.626 -8.414 52 60 63
-3.087 -22.793 -8.403 52 60 63
-2.943 -22.964 -8.391 53 61 64
-2.803 -23.139 -8.378 53 61 64
-2.668 -23.317 -8.366 54 61 67
-2.537 -23.498 -8.352 54 61 67
-2.412 -23.683 -8.338 54 61 67
-2.292 -23.870 -8.325 54 61 67
-2.177 -24.061 -8.309 52 60 63
-2.067 -24.254 -8.295 56 64 67
-1.962 -24.449 -8.280 52 60 63
-1.863 -24.647 -8.264 54 62 65
-1.769 -24.848 -8.248 56 64 67
-1.681 -25.050 -8.230 53 61 64
-1.598 -25.254 -8.213 54 62 65
-1.520 -25.460 -8.196 57 65 68
-1.447 -25.668 -8.179 54 62 65
-1.379 -25.876 -8.163 54 62 65
-1.317 -26.086 -8.146 56 64 67
-1.259 -26.297 -8.131 56 64 67
-1.207 -26.509 -8.114 55 63 66
-1.161 -26.722 -8.096 55 63 66
-1.122 -26.937 -8.078 56 64 67
-1.086 -27.151 -8.060 57 65 68
-1.057 -27.366 -8.043 58 66 69
-1.031 -27.581 -8.026 58 66 69
-1.014 -27.796 -8.007 58 66 69
-1.003 -28.012 -7.986 58 66 69
-0.999 -28.228 -7.964 58 66 69
-1.001 -28.443 -7.940 58 66 69
-1.010 -28.657 -7.915 59 67 70
-1.024 -28.871 -7.890 57 65 68
-1.045 -29.084 -7.864 59 66 72
-1.071 -29.296 -7.837 58 65 71
-1.102 -29.506 -7.810 59 66 72
-1.137 -29.715 -7.785 60 67 73
-1.175 -29.923 -7.761 61 69 72
-1.217 -30.130 -7.741 63 68 72
-1.262 -30.335 -7.721 63 66 71
-1.313 -30.538 -7.700 64 67 72
-1.370 -30.740 -7.679 63 66 71
-1.432 -30.939 -7.656 64 67 72
-1.500 -31.137 -7.633 63 66 71
-1.571 -31.332 -7.611 63 66 71
-1.647 -31.525 -7.590 61 64 69
-1.728 -31.716 -7.567 64 67 72
-1.814 -31.904 -7.544 63 66 71
-1.905 -32.089 -7.520 64 67 72
-1.998 -32.272 -7.499 66 70 73
-2.094 -32.453 -7.480 69 70 72
-2.193 -32.632 -7.463 68 69 71
-2.296 -32.808 -7.445 63 64 66
-2.401 -32.983 -7.431 63 64 66
-2.508 -33.155 -7.418 62 62 64
-2.617 -33.326 -7.410 66 66 68
-2.727 -33.496 -7.404 61 61 63
-2.837 -33.666 -7.405 58 58 60
-2.941 -33.841 -7.420 59 60 62
-3.039 -34.020 -7.449 50 51 55
-3.141 -34.199 -7.480 32 33 37
-3.239 -34.382 -7.522 38 42 45
-3.337 -34.568 -7.574 26 31 35
-3.437 -34.755 -7.630 25 30 34
-3.543 -34.941 -7.686 18 23 26
-3.650 -35.129 -7.748 24 31 37
-3.763 -35.314 -7.809 30 37 43
-3.888 -35.491 -7.859 25 32 38
-4.015 -35.669 -7.916 25 32 38
-4.150 -35.840 -7.966 29 36 44
-4.291 -36.008 -8.015 32 39 47
-4.436 -36.174 -8.066 24 31 39
-4.585 -36.339 -8.118 22 29 37
-4.737 -36.504 -8.176 41 46 50
-4.891 -36.670 -8.238 50 54 57
-5.056 -36.823 -8.288 42 46 49
-5.227 -36.971 -8.337 69 73 76
-5.403 -37.114 -8.382 60 60 60
-5.585 -37.248 -8.422 61 60 58
-5.774 -37.374 -8.457 94 93 91
-5.968 -37.492 -8.488 100 99 97
-6.168 -37.599 -8.509 154 153 149
-6.375 -37.691 -8.519 144 143 139
-6.586 -37.771 -8.521 163 162 158
-6.805 -37.832 -8.506 135 134 130
-7.029 -37.872 -8.472 100 97 92
-7.255 -37.901 -8.432 107 104 99
-7.482 -37.918 -8.384 105 102 97
-7.706 -37.938 -8.348 105 102 97
-7.930 -37.957 -8.315 106 103 96
-8.153 -37.970 -8.284 95 90 84
-8.375 -37.983 -8.259 92 84 81
-8.596 -37.995 -8.238 98 88 87
-8.816 -38.005 -8.222 91 81 80
-9.036 -38.011 -8.207 95 85 84
-9.256 -38.013 -8.194 96 84 84
-9.476 -38.012 -8.183 97 85 87
-9.695 -38.010 -8.178 94 82 84
-9.914 -38.003 -8.173 95 83 85
-10.132 -37.988 -8.165 95 83 85
-10.350 -37.966 -8.155 97 85 87
-10.567 -37.938 -8.145 96 86 87
-10.783 -37.905 -8.134 95 85 86
-10.997 -37.865 -8.123 95 85 86
-11.210 -37.819 -8.109 97 87 88
-11.422 -37.767 -8.095 99 87 87
-11.632 -37.711 -8.082 99 87 87
-11.840 -37.651 -8.070 99 87 87
-12.047 -37.585 -8.058 99 87 87
-12.252 -37.513 -8.044 97 87 86
-12.453 -37.435 -8.028 95 85 84
-12.653 -37.351 -8.012 95 85 84
-12.849 -37.262 -7.995 94 84 83
-13.043 -37.168 -7.977 95 83 85
-13.234 -37.068 -7.959 94 82 84
-13.421 -36.963 -7.939 96 84 86
-13.605 -36.852 -7.916 93 81 83
-13.784 -36.734 -7.892 93 81 83
-13.960 -36.613 -7.867 95 83 83
-14.132 -36.487 -7.841 92 80 80
-14.300 -36.356 -7.815 94 82 82
-14.463 -36.221 -7.787 95 79 80
-14.623 -36.082 -7.760 98 82 83
-14.780 -35.941 -7.735 99 83 84
-14.934 -35.797 -7.710 95 79 80
-15.084 -35.650 -7.686 94 80 80
-15.230 -35.501 -7.664 92 78 78
-15.374 -35.350 -7.643 93 79 79
-15.515 -35.198 -7.626 88 74 74
-15.654 -35.044 -7.610 87 75 75
-15.789 -34.886 -7.595 86 76 75
-15.921 -34.727 -7.582 84 74 73
-16.049 -34.565 -7.569 82 72 71
-16.173 -34.401 -7.557 82 72 71
-16.296 -34.236 -7.548 82 72 71
-16.414 -34.068 -7.540 79 69 68
-16.526 -33.895 -7.527 80 70 69
-16.632 -33.720 -7.515 79 69 68
-16.735 -33.542 -7.502 80 70 69
-16.833 -33.363 -7.490 81 71 70
-16.924 -33.180 -7.475 82 72 71
-17.008 -32.993 -7.455 83 71 71
-17.083 -32.803 -7.431 83 71 71
-17.152 -32.611 -7.407 83 71 71
-17.218 -32.419 -7.384 84 72 72
-17.281 -32.226 -7.364 86 76 74
-17.340 -32.033 -7.344 82 72 70
-17.391 -31.838 -7.321 83 73 71
-17.433 -31.640 -7.292 83 73 71
-17.465 -31.441 -7.258 84 74 72
-17.491 -31.242 -7.224 85 75 74
-17.511 -31.042 -7.189 84 74 73
-17.525 -30.842 -7.151 85 75 74
-17.533 -30.643 -7.113 94 84 82
-17.542 -30.446 -7.081 93 83 81
-17.535 -30.247 -7.038 90 82 80
-17.506 -30.047 -6.975 89 81 79
-17.455 -29.848 -6.892 95 91 90
-17.164 -29.635 -6.540 93 92 90
-17.011 -29.443 -6.352 66 65 63
-16.979 -29.263 -6.308 24 23 21
-16.963 -29.084 -6.288 16 17 22
-16.971 -28.905 -6.299 14 17 26
-16.978 -28.726 -6.315 14 17 26
-16.988 -28.546 -6.340 21 24 33
-16.943 -28.370 -6.305 27 32 36
-16.869 -28.199 -6.243 38 43 46
-16.794 -28.031 -6.184 47 52 55
-16.694 -27.870 -6.100 35 40 43
-16.599 -27.711 -6.027 40 44 43
-16.545 -27.546 -6.006 44 48 47
-16.501 -27.379 -6.001 49 53 52
-16.446 -27.216 -5.988 48 52 51
-16.387 -27.054 -5.974 49 51 50
-16.321 -26.895 -5.958 49 49 49
-16.256 -26.736 -5.946 50 50 50
-16.187 -26.580 -5.934 50 50 50
-16.113 -26.426 -5.921 47 49 48
-16.035 -26.274 -5.908 48 49 51
-15.951 -26.125 -5.891 47 48 50
-15.860 -25.980 -5.871 47 48 50
-15.767 -25.838 -5.851 47 49 48
-15.669 -25.699 -5.830 47 49 48
-15.566 -25.565 -5.806 47 49 48
-15.460 -25.433 -5.782 47 49 48
-15.349 -25.306 -5.755 50 54 53
-15.237 -25.181 -5.730 51 56 52
-15.738 -24.602 -6.580 51 55 54
-16.293 -23.934 -7.545 30 31 33
-16.208 -23.738 -7.608 93 98 92
-16.110 -23.550 -7.660 34 38 37
-16.007 -23.363 -7.715 19 20 24
-15.930 -23.148 -7.817 26 27 29
-15.852 -22.927 -7.929 38 39 41
-19.134 -19.170 -13.610 25 30 34
-18.971 -18.849 -13.751 9 16 24
-18.772 -18.561 -13.847 17 24 30
-18.547 -18.298 -13.911 45 50 54
-18.306 -18.050 -13.960 58 63 67
-18.049 -17.819 -13.993 64 69 72
-17.779 -17.605 -14.009 64 68 69
-17.502 -17.400 -14.023 65 74 71
-17.213 -17.211 -14.025 62 67 63
-16.905 -17.055 -13.992 69 70 65
-15.088 -19.563 -10.477 59 59 57
-13.912 -21.195 -8.201 46 48 47
-13.725 -21.078 -8.221 48 50 49
-13.536 -20.962 -8.245 51 53 52
-13.344 -20.851 -8.269 58 60 59
-13.151 -20.740 -8.298 72 71 67
-12.954 -20.635 -8.327 81 80 76
-12.753 -20.536 -8.353 90 89 85
-12.551 -20.437 -8.384 84 83 78
-12.348 -20.337 -8.423 69 66 61
-12.140 -20.246 -8.456 63 59 56
-11.929 -20.164 -8.486 72 68 65
-11.715 -20.089 -8.513 75 71 68
-11.497 -20.024 -8.534 75 72 65
-11.277 -19.964 -8.555 75 72 65
-11.056 -19.905 -8.581 74 71 64
-10.833 -19.855 -8.604 80 77 70
-10.608 -19.810 -8.626 83 81 68
-10.382 -19.772 -8.647 80 78 65
-10.153 -19.745 -8.662 84 82 69
-9.925 -19.721 -8.679 85 83 68
-9.695 -19.588 -9.192 46 55 54
-9.462 -19.591 -9.192 47 55 57
-9.229 -19.615 -9.174 50 58 61
-8.998 -19.641 -9.161 51 58 64
-8.768 -19.672 -9.147 50 58 60
-8.539 -19.710 -9.132 50 59 58
-8.310 -19.752 -9.119 50 59 58
-8.083 -19.798 -9.108 51 60 59
-7.857 -19.847 -9.100 49 57 60
-7.633 -19.902 -9.092 50 58 61
-7.410 -19.962 -9.084 50 58 61
-7.189 -20.029 -9.074 51 59 62
-6.970 -20.101 -9.064 52 60 63
-6.753 -20.179 -9.053 51 59 62
-6.538 -20.263 -9.042 50 58 61
-6.326 -20.351 -9.033 51 59 62
-6.116 -20.444 -9.022 52 60 62
-5.909 -20.544 -9.011 52 61 60
-5.705 -20.648 -8.999 52 61 60
-5.504 -20.758 -8.986 52 61 60
-5.306 -20.874 -8.973 53 61 64
-5.111 -20.993 -8.960 52 60 63
-4.919 -21.116 -8.950 52 60 63
-4.729 -21.242 -8.940 52 60 63
-4.543 -21.374 -8.930 52 60 63
-4.360 -21.509 -8.921 52 60 63
-4.180 -21.649 -8.911 54 62 65
-4.004 -21.793 -8.901 51 59 62
-3.833 -21.941 -8.891 53 61 64
-3.665 -22.094 -8.880 53 61 64
-3.500 -22.249 -8.872 53 61 64
-3.339 -22.409 -8.864 52 60 63
-3.183 -22.573 -8.854 53 61 64
-3.033 -22.742 -8.841 53 61 64
-2.887 -22.914 -8.829 53 61 64
-2.746 -23.090 -8.816 53 61 64
-2.609 -23.269 -8.804 53 60 66
-2.476 -23.451 -8.792 53 60 66
-2.350 -23.637 -8.778 53 60 66
-2.228 -23.825 -8.764 54 61 67
-2.112 -24.017 -8.749 56 64 67
-1.999 -24.211 -8.736 53 61 64
-1.893 -24.408 -8.721 55 63 66
-1.793 -24.608 -8.704 55 63 66
-1.699 -24.810 -8.686 56 64 67
-1.609 -25.014 -8.669 54 62 65
-1.524 -25.219 -8.653 55 63 66
-1.445 -25.427 -8.636 57 65 68
-1.370 -25.636 -8.620 56 64 67
-1.301 -25.846 -8.603 56 64 67
-1.238 -26.058 -8.587 56 64 67
-1.178 -26.270 -8.572 56 64 67
-1.124 -26.484 -8.556 56 64 67
-1.077 -26.699 -8.539 56 64 67
-1.036 -26.915 -8.521 56 64 67
-1.000 -27.131 -8.504 57 65 68
-0.968 -27.348 -8.487 58 66 69
-0.942 -27.565 -8.471 58 66 69
-0.923 -27.783 -8.452 58 66 69
-0.912 -28.001 -8.430 58 66 69
-0.908 -28.219 -8.406 58 66 69
-0.911 -28.436 -8.381 58 66 69
-0.918 -28.653 -8.357 60 68 71
-0.933 -28.869 -8.330 58 66 69
-0.953 -29.084 -8.303 59 66 72
-0.979 -29.298 -8.275 58 65 71
-1.011 -29.511 -8.247 61 68 74
-1.046 -29.722 -8.222 62 69 75
-1.084 -29.932 -8.197 61 69 72
-1.126 -30.141 -8.176 63 68 72
-1.173 -30.348 -8.154 67 70 75
-1.225 -30.554 -8.132 66 69 74
-1.282 -30.757 -8.109 64 67 72
-1.345 -30.959 -8.087 65 68 73
-1.411 -31.159 -8.065 65 68 73
-1.483 -31.356 -8.042 65 68 73
-1.559 -31.552 -8.021 65 68 73
-1.639 -31.745 -8.000 65 68 73
-1.722 -31.937 -7.980 65 68 73
-1.811 -32.125 -7.960 66 69 74
-1.903 -32.311 -7.940 67 71 74
-1.999 -32.495 -7.921 68 72 75
-2.099 -32.677 -7.904 70 74 77
-2.204 -32.855 -7.885 68 72 75
-2.314 -33.029 -7.864 67 68 70
-2.429 -33.200 -7.843 65 66 68
-2.547 -33.368 -7.822 65 66 68
-2.667 -33.534 -7.804 69 70 72
-2.788 -33.699 -7.790 65 66 68
-2.911 -33.862 -7.780 63 64 66
-3.036 -34.022 -7.771 63 64 66
-3.162 -34.182 -7.766 60 61 63
-3.284 -34.345 -7.775 58 62 65
-3.402 -34.512 -7.794 75 79 82
-3.519 -34.682 -7.824 60 64 67
-3.633 -34.855 -7.865 42 46 49
-3.747 -35.032 -7.914 41 46 50
-3.860 -35.213 -7.974 24 29 33
-3.976 -35.393 -8.036 23 28 32
-4.098 -35.572 -8.099 31 36 40
-4.227 -35.746 -8.158 33 38 44
-4.362 -35.918 -8.217 41 46 52
-4.503 -36.085 -8.273 34 39 45
-4.652 -36.245 -8.323 31 36 42
-4.808 -36.397 -8.366 74 74 76
-4.965 -36.553 -8.420 76 74 75
-5.133 -36.695 -8.459 79 77 78
-5.304 -36.835 -8.500 58 56 57
-5.478 -36.974 -8.544 45 44 42
-5.653 -37.114 -8.595 69 68 66
-5.832 -37.250 -8.647 97 96 94
-6.020 -37.374 -8.688 71 70 68
-6.207 -37.504 -8.742 105 104 100
-6.399 -37.627 -8.792 101 100 96
-6.597 -37.742 -8.838 88 87 83
-6.800 -37.847 -8.878 80 79 75
-7.009 -37.939 -8.906 123 122 118
-7.224 -38.013 -8.919 148 147 143
-7.444 -38.071 -8.919 166 165 161
-7.668 -38.110 -8.904 169 168 164
-7.896 -38.127 -8.867 126 125 121
-8.123 -38.139 -8.832 85 81 78
-8.351 -38.144 -8.795 103 99 96
-8.576 -38.150 -8.767 106 101 97
-8.802 -38.150 -8.737 111 106 102
-9.027 -38.142 -8.705 97 92 88
-9.250 -38.127 -8.671 97 89 86
-9.473 -38.114 -8.646 92 82 80
-9.695 -38.105 -8.633 94 84 85
-9.916 -38.097 -8.627 95 85 86
-10.137 -38.084 -8.620 94 84 85
-10.357 -38.064 -8.612 96 86 87
-10.577 -38.038 -8.605 97 85 87
-10.795 -38.007 -8.596 96 84 86
-11.013 -37.969 -8.587 96 84 86
-11.229 -37.924 -8.575 99 87 89
-11.443 -37.873 -8.561 101 89 89
-11.656 -37.816 -8.548 101 89 89
-11.867 -37.756 -8.537 98 86 86
-12.076 -37.690 -8.525 98 86 86
-12.284 -37.618 -8.512 96 86 85
-12.488 -37.539 -8.495 94 84 83
-12.690 -37.455 -8.479 98 88 87
-12.890 -37.366 -8.463 97 87 86
-13.087 -37.273 -8.447 97 85 87
-13.280 -37.173 -8.429 96 84 86
-13.470 -37.065 -8.406 96 84 86
-13.657 -36.956 -8.387 96 84 86
-13.840 -36.839 -8.364 96 84 84
-14.018 -36.716 -8.338 96 84 84
-14.193 -36.590 -8.314 95 83 83
-14.363 -36.456 -8.285 97 85 85
-14.527 -36.316 -8.252 96 80 81
-14.689 -36.176 -8.224 99 83 84
-14.848 -36.033 -8.197 97 81 82
-15.004 -35.887 -8.171 95 79 80
-15.155 -35.738 -8.145 94 80 80
-15.304 -35.587 -8.122 90 78 78
-15.450 -35.434 -8.101 90 78 78
-15.593 -35.279 -8.082 89 77 77
-15.733 -35.122 -8.065 86 76 75
-15.869 -34.963 -8.048 86 76 75
-16.002 -34.801 -8.033 86 76 75
-16.132 -34.637 -8.020 83 73 72
-16.259 -34.471 -8.009 84 74 73
-16.384 -34.304 -8.000 84 74 73
-16.504 -34.134 -7.992 81 71 70
-16.618 -33.960 -7.981 82 72 71
-16.728 -33.784 -7.970 80 70 69
-16.832 -33.604 -7.957 81 71 70
-16.932 -33.422 -7.945 81 71 70
-17.024 -33.236 -7.929 82 72 71
-17.111 -33.048 -7.912 83 71 71
-17.191 -32.857 -7.891 83 71 71
-17.264 -32.664 -7.870 83 71 71
-17.330 -32.469 -7.844 82 70 70
-17.396 -32.274 -7.825 79 69 68
-17.457 -32.078 -7.806 80 70 69
-17.511 -31.881 -7.784 84 74 73
-17.557 -31.681 -7.760 81 71 70
-17.596 -31.481 -7.732 86 76 75
-17.628 -31.279 -7.702 81 71 70
-17.651 -31.077 -7.668 81 71 70
-17.666 -30.874 -7.629 81 71 70
-17.673 -30.671 -7.588 81 71 69
-17.674 -30.469 -7.546 81 71 69
-17.672 -30.267 -7.506 83 73 71
-17.666 -30.067 -7.467 81 71 69
-17.651 -29.868 -7.423 82 74 72
-17.625 -29.669 -7.373 83 75 73
-17.599 -29.472 -7.327 96 88 86
-17.569 -29.277 -7.284 90 82 80
-17.525 -29.084 -7.229 85 82 77
-17.457 -28.893 -7.152 87 84 79
-17.357 -28.708 -7.042 82 79 74
-17.303 -28.523 -6.992 87 84 79
-17.251 -28.340 -6.949 90 89 87
-17.017 -28.181 -6.696 70 68 69
-16.852 -28.022 -6.529 45 43 44
-16.781 -27.854 -6.478 52 50 51
-16.734 -27.684 -6.460 54 54 54
-16.692 -27.513 -6.452 53 53 53
-16.644 -27.343 -6.443 51 51 51
-16.584 -27.177 -6.426 50 50 50
-16.517 -27.014 -6.403 48 50 49
-16.447 -26.853 -6.381 47 49 48
-16.376 -26.693 -6.364 47 49 48
-16.305 -26.534 -6.351 47 49 48
-16.230 -26.377 -6.338 48 50 49
-16.151 -26.222 -6.324 46 50 49
-16.066 -26.071 -6.307 46 50 49
-15.975 -25.923 -6.287 46 50 49
-15.880 -25.778 -6.266 48 50 49
-15.781 -25.636 -6.245 48 50 49
-15.678 -25.498 -6.222 49 51 50
-15.571 -25.363 -6.198 49 51 50
-15.459 -25.233 -6.171 38 43 39
-15.345 -25.105 -6.146 39 44 40
-15.274 -24.946 -6.187 34 38 37
-16.160 -24.038 -7.666 27 31 32
-16.091 -23.834 -7.753 37 39 38
-16.014 -23.633 -7.836 29 30 32
-15.899 -23.461 -7.869 65 66 70
-15.812 -23.260 -7.955 103 105 104
-15.710 -23.069 -8.026 28 32 33
-18.971 -19.341 -13.856 26 31 37
-18.813 -19.023 -14.003 13 20 30
-18.613 -18.745 -14.093 12 21 28
-18.396 -18.482 -14.166 15 20 26
-18.160 -18.236 -14.218 23 28 34
-17.910 -18.007 -14.254 25 30 34
-17.644 -17.797 -14.271 24 29 32
-17.368 -17.600 -14.279 21 29 31
-17.082 -17.418 -14.276 36 40 39
-16.776 -17.269 -14.235 64 64 62
-15.167 -19.425 -11.085 41 42 44
-13.826 -21.354 -8.331 16 21 25
-13.642 -21.241 -8.349 13 18 22
-13.459 -21.125 -8.377 17 22 26
-13.273 -21.011 -8.408 21 26 30
-13.085 -20.899 -8.442 28 32 33
-12.892 -20.795 -8.472 40 41 43
-12.696 -20.695 -8.501 52 53 55
-12.497 -20.601 -8.530 47 48 50
-12.298 -20.501 -8.571 33 34 36
-12.094 -20.413 -8.604 13 14 16
-11.887 -20.332 -8.634 14 15 17
-11.677 -20.258 -8.662 14 15 17
-11.463 -20.193 -8.684 11 13 12
-11.248 -20.133 -8.707 12 14 11
-11.031 -20.075 -8.734 13 15 12
-10.812 -20.026 -8.757 16 18 15
-10.591 -19.983 -8.779 15 19 18
-10.369 -19.944 -8.802 33 35 30
-10.145 -19.912 -8.824 70 70 60
-9.921 -19.885 -8.846 77 74 59
-9.695 -19.549 -9.619 49 58 57
-9.461 -19.549 -9.622 47 55 57
-9.227 -19.574 -9.602 53 61 64
-8.995 -19.600 -9.588 48 55 61
-8.764 -19.633 -9.572 50 58 61
-8.534 -19.670 -9.558 53 61 63
-8.305 -19.713 -9.543 52 60 62
-8.077 -19.759 -9.532 52 60 62
-7.850 -19.809 -9.523 51 59 62
-7.624 -19.862 -9.516 55 63 66
-7.400 -19.922 -9.508 51 59 62
-7.178 -19.989 -9.499 53 61 64
-6.958 -20.061 -9.489 51 59 61
-6.740 -20.139 -9.479 50 58 60
-6.524 -20.221 -9.470 52 60 62
-6.310 -20.309 -9.460 49 57 59
-6.099 -20.402 -9.450 51 59 61
-5.890 -20.502 -9.439 52 60 62
-5.685 -20.606 -9.428 52 60 62
-5.482 -20.716 -9.416 52 60 62
-5.282 -20.829 -9.405 48 56 59
-5.086 -20.948 -9.394 51 59 62
-4.891 -21.069 -9.386 50 58 61
-4.699 -21.195 -9.378 53 61 64
-4.511 -21.326 -9.369 53 61 63
-4.325 -21.460 -9.362 53 61 63
-4.144 -21.600 -9.354 52 60 62
-3.967 -21.744 -9.345 52 60 62
-3.793 -21.893 -9.335 52 60 63
-3.624 -22.046 -9.325 52 60 63
-3.456 -22.201 -9.319 55 63 66
-3.294 -22.361 -9.312 52 60 63
-3.136 -22.525 -9.303 53 61 64
-2.983 -22.694 -9.291 53 61 64
-2.836 -22.867 -9.280 54 62 65
-2.692 -23.044 -9.268 53 61 64
-2.553 -23.223 -9.257 51 58 64
-2.420 -23.407 -9.244 51 58 64
-2.292 -23.594 -9.230 55 62 68
-2.169 -23.784 -9.216 53 60 66
-2.052 -23.977 -9.201 54 62 65
-1.938 -24.172 -9.187 53 61 64
-1.831 -24.371 -9.172 55 63 66
-1.729 -24.572 -9.155 54 62 65
-1.634 -24.775 -9.137 56 64 67
-1.543 -24.981 -9.120 53 61 64
-1.456 -25.188 -9.104 55 63 66
-1.376 -25.397 -9.087 55 63 66
-1.301 -25.607 -9.070 53 61 64
-1.232 -25.820 -9.053 55 63 66
-1.167 -26.033 -9.036 57 65 68
-1.106 -26.247 -9.021 56 64 67
-1.051 -26.462 -9.006 55 63 66
-1.003 -26.679 -8.989 56 64 67
-0.961 -26.896 -8.970 57 65 68
-0.924 -27.114 -8.953 57 65 68
-0.891 -27.333 -8.937 57 65 68
-0.864 -27.552 -8.921 57 65 68
-0.845 -27.771 -8.901 58 66 69
-0.835 -27.991 -8.878 58 66 69
-0.830 -28.211 -8.853 58 66 69
-0.831 -28.430 -8.829 59 67 70
-0.837 -28.649 -8.806 58 66 69
-0.850 -28.867 -8.781 59 67 70
-0.869 -29.084 -8.754 60 67 73
-0.895 -29.300 -8.726 59 66 72
-0.926 -29.515 -8.698 59 66 72
-0.961 -29.728 -8.671 61 68 74
-1.000 -29.940 -8.646 61 69 72
-1.043 -30.151 -8.622 63 68 72
-1.090 -30.360 -8.600 65 68 73
-1.142 -30.568 -8.577 65 68 73
-1.198 -30.774 -8.556 65 68 73
-1.260 -30.978 -8.534 67 70 75
-1.326 -31.180 -8.512 66 69 74
-1.397 -31.380 -8.490 66 69 74
-1.472 -31.578 -8.470 70 73 78
-1.551 -31.774 -8.451 66 69 74
-1.633 -31.969 -8.433 66 69 74
-1.720 -32.160 -8.415 66 69 74
-1.811 -32.350 -8.398 67 70 75
-1.906 -32.536 -8.381 68 71 76
-2.005 -32.721 -8.365 67 70 75
-2.109 -32.902 -8.348 67 70 75
-2.220 -33.079 -8.327 70 71 75
-2.336 -33.252 -8.305 67 68 72
-2.457 -33.422 -8.282 68 69 73
-2.581 -33.589 -8.259 68 69 73
-2.708 -33.752 -8.239 67 68 72
-2.840 -33.911 -8.216 67 68 72
-2.976 -34.067 -8.193 68 69 73
-3.114 -34.219 -8.171 67 68 72
-3.253 -34.370 -8.154 65 66 68
-3.390 -34.522 -8.145 64 65 67
-3.527 -34.674 -8.143 65 66 68
-3.663 -34.827 -8.148 60 61 63
-3.799 -34.979 -8.159 57 58 60
-3.934 -35.134 -8.179 59 60 62
-4.064 -35.297 -8.217 54 55 57
-4.188 -35.468 -8.273 42 43 45
-4.313 -35.641 -8.336 45 46 50
-4.445 -35.811 -8.397 44 45 49
-4.581 -35.978 -8.459 32 33 37
-4.725 -36.141 -8.517 20 21 25
-4.873 -36.300 -8.574 71 66 63
-5.030 -36.450 -8.623 79 72 66
-5.194 -36.593 -8.667 76 69 63
-5.363 -36.731 -8.710 85 78 72
-5.534 -36.867 -8.754 95 91 88
-5.709 -37.002 -8.801 77 73 70
-5.887 -37.134 -8.850 93 89 86
-6.072 -37.257 -8.893 87 83 80
-6.260 -37.375 -8.935 92 91 87
-6.452 -37.490 -8.978 91 90 86
-6.644 -37.609 -9.033 93 92 88
-6.841 -37.723 -9.086 91 90 86
-7.042 -37.829 -9.135 117 116 114
-7.249 -37.920 -9.172 115 114 112
-7.459 -38.009 -9.211 81 80 78
-7.672 -38.093 -9.251 79 78 76
-7.888 -38.166 -9.283 124 122 123
-8.108 -38.228 -9.309 123 121 122
-8.331 -38.277 -9.324 116 116 114
-8.557 -38.309 -9.326 155 154 152
-8.784 -38.328 -9.318 147 147 145
-9.013 -38.331 -9.299 96 96 94
-9.241 -38.324 -9.273 99 98 94
-9.468 -38.308 -9.243 102 99 94
-9.695 -38.279 -9.204 104 99 96
-9.919 -38.239 -9.159 102 96 96
-10.143 -38.201 -9.122 100 94 94
-10.364 -38.164 -9.094 94 88 88
-10.586 -38.130 -9.075 94 82 84
-10.806 -38.094 -9.062 96 84 86
-11.025 -38.054 -9.050 97 85 87
-11.243 -38.009 -9.037 98 86 88
-11.460 -37.957 -9.024 98 86 86
-11.674 -37.900 -9.010 97 87 86
-11.887 -37.837 -8.995 95 85 84
-12.098 -37.770 -8.981 95 85 84
-12.308 -37.697 -8.968 95 85 84
-12.514 -37.619 -8.953 96 86 85
-12.719 -37.537 -8.940 95 85 84
-12.922 -37.451 -8.927 97 87 86
-13.123 -37.360 -8.915 96 84 86
-13.319 -37.261 -8.899 95 83 85
-13.513 -37.157 -8.881 95 83 85
-13.702 -37.045 -8.860 97 85 87
-13.887 -36.927 -8.837 96 84 84
-14.068 -36.805 -8.812 96 84 84
-14.245 -36.676 -8.785 96 84 84
-14.418 -36.543 -8.758 97 85 85
-14.587 -36.406 -8.730 97 83 83
-14.752 -36.265 -8.702 97 83 83
-14.912 -36.119 -8.673 96 82 82
-15.068 -35.970 -8.643 94 80 80
-15.222 -35.818 -8.616 92 80 80
-15.372 -35.665 -8.591 91 79 79
-15.519 -35.510 -8.568 89 77 77
-15.663 -35.353 -8.547 89 77 77
-15.804 -35.193 -8.528 85 75 74
-15.941 -35.031 -8.509 85 75 74
-16.075 -34.867 -8.492 86 76 75
-16.206 -34.701 -8.478 86 76 75
-16.334 -34.533 -8.466 85 75 74
-16.460 -34.364 -8.456 85 75 74
-16.581 -34.191 -8.447 83 73 72
-16.697 -34.015 -8.435 84 74 73
-16.807 -33.837 -8.424 83 73 72
-16.914 -33.655 -8.412 82 72 71
-17.015 -33.472 -8.400 80 70 69
-17.110 -33.285 -8.385 81 71 70
-17.200 -33.096 -8.369 83 71 71
-17.283 -32.904 -8.352 83 71 71
-17.361 -32.710 -8.334 83 71 71
-17.434 -32.515 -8.315 82 70 70
-17.502 -32.318 -8.297 80 70 71
-17.564 -32.120 -8.278 80 70 71
-17.620 -31.920 -8.257 79 69 70
-17.670 -31.719 -8.234 80 70 71
-17.713 -31.516 -8.210 81 71 70
-17.748 -31.313 -8.182 81 71 70
-17.770 -31.107 -8.144 81 71 70
-17.790 -30.902 -8.110 81 71 70
-17.802 -30.697 -8.072 77 67 65
-17.807 -30.492 -8.032 79 69 67
-17.803 -30.287 -7.988 76 66 64
-17.801 -30.084 -7.952 83 73 71
-17.790 -29.881 -7.912 79 67 67
-17.771 -29.680 -7.868 82 70 70
-17.747 -29.480 -7.823 79 67 67
-17.716 -29.281 -7.777 84 72 72
-17.682 -29.084 -7.732 84 72 72
-17.645 -28.889 -7.690 84 72 72
-17.610 -28.695 -7.657 82 70 70
-17.577 -28.503 -7.631 84 72 72
-17.552 -28.310 -7.620 84 74 73
-17.529 -28.118 -7.618 80 70 68
-17.495 -27.927 -7.609 85 75 73
-17.452 -27.738 -7.594 91 81 79
-17.406 -27.550 -7.580 85 79 79
-17.283 -27.380 -7.477 81 77 76
-17.025 -27.248 -7.208 79 75 74
-16.875 -27.097 -7.078 74 70 69
-16.643 -26.976 -6.848 60 60 58
-16.560 -26.816 -6.810 54 54 52
-16.489 -26.653 -6.793 48 48 46
-16.417 -26.491 -6.779 49 49 47
-16.340 -26.331 -6.765 50 52 49
-16.259 -26.174 -6.749 48 50 47
-16.171 -26.021 -6.730 48 50 47
-16.080 -25.870 -6.710 51 53 50
-15.982 -25.723 -6.687 55 55 53
-15.880 -25.580 -6.662 48 48 46
-15.775 -25.440 -6.638 43 43 41
-15.668 -25.302 -6.615 64 64 62
-15.563 -25.163 -6.600 80 82 79
-15.461 -25.023 -6.593 72 74 71
-15.376 -24.870 -6.619 59 61 60
-15.776 -24.338 -7.400 48 49 51
-15.950 -23.951 -7.860 14 18 21
-15.895 -23.736 -7.977 14 17 24
-15.778 -23.571 -8.003 19 22 27
-15.704 -23.363 -8.110 29 33 32
-15.582 -23.197 -8.144 33 37 38
-18.821 -19.499 -14.127 24 29 35
-18.651 -19.202 -14.250 13 20 30
-18.448 -18.936 -14.330 15 24 31
-18.234 -18.679 -14.402 15 19 28
-18.004 -18.436 -14.458 18 23 29
-17.760 -18.209 -14.497 23 28 34
-17.498 -18.004 -14.514 24 29 33
-17.226 -17.813 -14.518 22 30 33
-16.946 -17.633 -14.516 41 45 44
-16.644 -17.490 -14.471 63 63 61
-15.290 -19.206 -11.833 47 48 50
-13.736 -21.523 -8.446 18 25 31
-13.556 -21.413 -8.464 13 22 27
-13.378 -21.296 -8.497 14 23 28
-13.197 -21.182 -8.532 9 18 23
-13.014 -21.071 -8.568 5 14 19
-12.826 -20.966 -8.602 5 14 19
-12.634 -20.869 -8.632 6 15 20
-12.440 -20.773 -8.665 7 16 21
-12.246 -20.672 -8.711 6 15 20
-12.046 -20.586 -8.744 10 19 24
-11.844 -20.505 -8.776 12 21 26
-11.637 -20.433 -8.804 21 30 35
-11.428 -20.368 -8.829 18 28 30
-11.218 -20.307 -8.855 12 22 24
-11.005 -20.249 -8.884 11 21 23
-10.791 -20.198 -8.910 12 22 24
-10.574 -20.155 -8.932 8 17 26
-10.356 -20.116 -8.957 7 12 16
-10.137 -20.081 -8.984 68 68 60
-9.916 -20.058 -9.002 74 68 56
-9.695 -19.500 -10.076 48 57 56
-9.459 -19.502 -10.077 49 57 59
-9.225 -19.530 -10.053 49 57 60
-8.992 -19.558 -10.036 50 57 63
-8.760 -19.593 -10.017 50 58 61
-8.529 -19.631 -10.001 50 58 61
-8.299 -19.674 -9.986 50 58 61
-8.070 -19.719 -9.977 50 58 61
-7.841 -19.767 -9.969 52 60 63
-7.614 -19.819 -9.964 51 59 62
-7.389 -19.878 -9.958 52 60 63
-7.165 -19.943 -9.951 51 59 62
-6.943 -20.014 -9.942 52 60 62
-6.724 -20.091 -9.934 51 59 61
-6.506 -20.172 -9.927 50 58 60
-6.290 -20.258 -9.919 50 58 60
-6.077 -20.351 -9.910 50 58 61
-5.867 -20.450 -9.900 51 59 62
-5.660 -20.553 -9.890 51 59 62
-5.456 -20.663 -9.879 51 59 62
-5.254 -20.776 -9.869 51 59 62
-5.056 -20.896 -9.858 51 59 62
-4.860 -21.017 -9.850 53 61 64
-4.668 -21.145 -9.839 52 60 63
-4.479 -21.278 -9.830 52 60 62
-4.292 -21.413 -9.822 52 60 62
-4.110 -21.554 -9.812 52 60 62
-3.933 -21.701 -9.800 52 60 62
-3.759 -21.852 -9.789 52 60 63
-3.589 -22.006 -9.778 52 60 63
-3.421 -22.162 -9.770 52 60 63
-3.258 -22.324 -9.761 54 62 65
-3.100 -22.489 -9.751 53 61 64
-2.948 -22.660 -9.738 53 61 64
-2.799 -22.834 -9.726 52 60 63
-2.656 -23.012 -9.713 51 59 62
-2.516 -23.193 -9.701 53 60 66
-2.383 -23.378 -9.687 53 60 66
-2.255 -23.566 -9.671 53 60 66
-2.131 -23.757 -9.656 52 59 65
-2.012 -23.951 -9.642 54 62 65
-1.897 -24.146 -9.629 54 62 65
-1.789 -24.345 -9.614 55 63 66
-1.687 -24.548 -9.597 55 63 66
-1.590 -24.752 -9.578 53 61 64
-1.499 -24.958 -9.562 56 64 67
-1.411 -25.166 -9.547 53 61 64
-1.329 -25.376 -9.529 55 63 66
-1.254 -25.588 -9.512 55 63 66
-1.184 -25.801 -9.493 54 62 65
-1.119 -26.015 -9.477 56 64 67
-1.056 -26.230 -9.463 56 64 67
-0.999 -26.446 -9.449 55 63 66
-0.950 -26.664 -9.433 56 64 67
-0.907 -26.883 -9.414 57 65 68
-0.869 -27.102 -9.397 57 65 68
-0.836 -27.322 -9.381 57 65 68
-0.807 -27.542 -9.365 57 65 68
-0.787 -27.763 -9.346 57 65 68
-0.777 -27.984 -9.321 57 65 68
-0.772 -28.205 -9.296 57 65 68
-0.772 -28.426 -9.273 57 65 68
-0.777 -28.646 -9.250 57 65 68
-0.789 -28.865 -9.225 58 66 69
-0.810 -29.084 -9.195 60 67 73
-0.836 -29.301 -9.165 59 66 72
-0.867 -29.518 -9.136 58 65 71
-0.902 -29.733 -9.109 60 67 73
-0.941 -29.946 -9.083 61 69 72
-0.985 -30.158 -9.057 63 68 72
-1.034 -30.369 -9.032 65 68 73
-1.086 -30.578 -9.009 63 66 71
-1.141 -30.785 -8.988 62 65 70
-1.201 -30.991 -8.968 64 67 72
-1.266 -31.195 -8.948 65 68 73
-1.337 -31.397 -8.926 65 68 73
-1.411 -31.597 -8.907 65 68 73
-1.489 -31.795 -8.888 65 68 73
-1.571 -31.991 -8.872 66 69 74
-1.657 -32.185 -8.855 66 69 74
-1.747 -32.376 -8.839 66 69 76
-1.841 -32.565 -8.824 66 69 76
-1.939 -32.752 -8.810 67 70 77
-2.042 -32.936 -8.795 67 70 77
-2.150 -33.116 -8.778 70 71 76
-2.267 -33.292 -8.757 67 68 73
-2.388 -33.464 -8.734 68 69 74
-2.514 -33.631 -8.709 68 69 74
-2.643 -33.796 -8.686 68 69 74
-2.776 -33.956 -8.662 68 69 74
-2.914 -34.113 -8.637 68 69 74
-3.055 -34.266 -8.612 67 68 73
-3.197 -34.416 -8.591 65 66 68
-3.342 -34.564 -8.571 63 65 64
-3.487 -34.710 -8.556 63 65 64
-3.634 -34.854 -8.543 62 64 63
-3.783 -34.996 -8.534 66 66 66
-3.933 -35.136 -8.528 64 64 64
-4.084 -35.275 -8.528 64 64 64
-4.233 -35.415 -8.535 61 61 61
-4.383 -35.557 -8.551 56 56 58
-4.531 -35.701 -8.575 61 61 63
-4.680 -35.846 -8.608 59 59 61
-4.829 -35.993 -8.648 38 38 40
-4.970 -36.155 -8.715 77 73 70
-5.120 -36.309 -8.775 85 80 76
-5.278 -36.453 -8.825 81 76 72
-5.441 -36.592 -8.873 80 75 71
-5.608 -36.729 -8.922 79 74 70
-5.780 -36.861 -8.970 72 67 63
-5.956 -36.990 -9.019 75 70 66
-6.134 -37.117 -9.071 79 74 70
-6.316 -37.241 -9.125 97 96 92
-6.502 -37.361 -9.178 91 90 86
-6.692 -37.475 -9.230 90 89 85
-6.887 -37.583 -9.278 98 97 93
-7.085 -37.685 -9.325 104 103 101
-7.289 -37.777 -9.365 90 89 87
-7.494 -37.869 -9.411 72 71 69
-7.703 -37.955 -9.456 104 103 101
-7.913 -38.042 -9.508 109 110 105
-8.125 -38.130 -9.568 132 132 130
-8.342 -38.204 -9.617 43 44 46
-8.560 -38.281 -9.676 23 26 31
-8.782 -38.348 -9.730 32 37 43
-9.008 -38.397 -9.766 63 66 71
-9.236 -38.421 -9.779 92 93 95
-9.465 -38.423 -9.770 97 97 95
-9.695 -38.415 -9.756 94 93 91
-9.923 -38.395 -9.735 98 97 95
-10.151 -38.364 -9.707 94 93 91
-10.376 -38.325 -9.675 98 97 95
-10.600 -38.278 -9.640 100 96 95
-10.822 -38.222 -9.601 103 97 97
-11.042 -38.167 -9.570 102 96 96
-11.260 -38.106 -9.538 93 87 87
-11.478 -38.047 -9.514 98 90 88
-11.694 -37.986 -9.496 97 89 87
-11.908 -37.922 -9.480 96 88 86
-12.121 -37.853 -9.465 93 85 83
-12.333 -37.780 -9.450 95 85 84
-12.542 -37.703 -9.438 95 85 84
-12.750 -37.622 -9.426 92 82 81
-12.955 -37.535 -9.413 92 82 81
-13.157 -37.442 -9.399 96 84 86
-13.355 -37.342 -9.381 95 83 85
-13.550 -37.235 -9.361 96 84 86
-13.741 -37.123 -9.339 95 83 85
-13.928 -37.004 -9.315 95 83 83
-14.112 -36.881 -9.291 95 83 83
-14.291 -36.752 -9.265 96 84 84
-14.467 -36.620 -9.239 93 81 81
-14.640 -36.485 -9.215 95 83 83
-14.808 -36.345 -9.189 95 83 83
-14.972 -36.199 -9.161 91 79 79
-15.130 -36.049 -9.132 93 81 81
-15.286 -35.897 -9.105 92 80 80
-15.440 -35.744 -9.082 91 79 79
-15.585 -35.583 -9.052 89 77 77
-15.731 -35.424 -9.031 89 77 77
-15.874 -35.263 -9.011 87 77 76
-16.013 -35.100 -8.993 87 77 76
-16.151 -34.935 -8.979 86 76 75
-16.284 -34.768 -8.965 86 76 75
-16.414 -34.599 -8.953 85 75 74
-16.541 -34.427 -8.942 85 75 74
-16.662 -34.252 -8.930 84 74 73
-16.779 -34.073 -8.917 85 75 74
-16.891 -33.892 -8.905 83 73 72
-16.998 -33.709 -8.892 84 74 73
-17.100 -33.523 -8.879 85 75 74
-17.198 -33.334 -8.865 84 74 73
-17.290 -33.144 -8.851 82 70 70
-17.377 -32.951 -8.837 82 70 70
-17.458 -32.756 -8.821 81 69 69
-17.534 -32.559 -8.804 82 70 70
-17.601 -32.359 -8.783 80 70 71
-17.662 -32.157 -8.760 80 70 71
-17.718 -31.955 -8.737 81 71 72
-17.768 -31.751 -8.712 80 70 71
-17.812 -31.546 -8.688 79 69 68
-17.851 -31.341 -8.663 81 71 70
-17.882 -31.135 -8.634 81 71 70
-17.905 -30.928 -8.603 80 70 69
-17.920 -30.720 -8.567 79 69 67
-17.929 -30.513 -8.531 80 70 68
-17.932 -30.306 -8.493 82 72 70
-17.930 -30.100 -8.455 79 69 67
-17.922 -29.894 -8.417 79 69 68
-17.909 -29.690 -8.378 81 71 70
-17.891 -29.487 -8.339 81 71 70
-17.867 -29.285 -8.301 80 70 69
-17.841 -29.084 -8.264 79 67 69
-17.813 -28.885 -8.232 81 69 73
-17.783 -28.687 -8.203 82 70 74
-17.752 -28.490 -8.179 81 69 73
-17.723 -28.293 -8.164 83 73 74
-17.693 -28.098 -8.154 80 70 71
-17.650 -27.904 -8.134 84 74 75
-17.613 -27.710 -8.127 84 74 75
-17.572 -27.517 -8.120 84 74 73
-17.533 -27.324 -8.122 83 73 72
-17.499 -27.129 -8.137 82 72 71
-17.457 -26.936 -8.148 84 74 73
-17.409 -26.744 -8.157 82 74 72
-17.354 -26.554 -8.164 88 80 78
-17.292 -26.366 -8.167 90 82 80
-17.217 -26.182 -8.159 89 81 79
-17.116 -26.010 -8.122 88 83 80
-16.546 -26.047 -7.443 86 81 78
-16.392 -25.916 -7.335 85 80 77
-16.285 -25.767 -7.297 98 93 90
-16.130 -25.644 -7.195 93 92 88
-16.003 -25.510 -7.135 75 74 70
-15.902 -25.363 -7.119 76 75 71
-15.795 -25.221 -7.099 60 59 55
-15.690 -25.078 -7.085 47 47 45
-15.588 -24.934 -7.082 49 49 47
-15.491 -24.785 -7.092 52 52 52
-15.414 -24.621 -7.141 47 47 49
-15.792 -24.080 -7.938 19 23 24
-15.738 -23.871 -8.056 10 15 21
-15.631 -23.704 -8.094 10 14 25
-15.550 -23.509 -8.187 13 18 24
-15.452 -23.327 -8.258 11 15 18
-18.657 -19.670 -14.378 25 30 36
-18.490 -19.380 -14.502 14 21 31
-18.287 -19.123 -14.574 16 25 32
-18.075 -18.873 -14.644 18 22 31
-17.848 -18.636 -14.699 16 20 29
-17.607 -18.416 -14.735 21 26 32
-17.350 -18.214 -14.752 23 28 34
-17.084 -18.025 -14.758 19 26 32
-16.810 -17.848 -14.757 32 36 37
-16.514 -17.707 -14.713 64 64 64
-15.203 -19.360 -12.082 50 51 55
-13.646 -21.692 -8.560 9 17 20
-13.471 -21.581 -8.583 9 17 19
-13.297 -21.467 -8.617 8 16 18
-13.122 -21.353 -8.656 6 14 16
-12.942 -21.245 -8.691 6 14 17
-12.759 -21.139 -8.729 9 17 20
-12.572 -21.042 -8.761 12 20 23
-12.382 -20.948 -8.796 14 22 25
-12.192 -20.852 -8.839 15 23 26
-11.997 -20.765 -8.876 13 21 24
-11.797 -20.691 -8.902 11 19 22
-11.595 -20.620 -8.930 9 17 20
-11.391 -20.555 -8.957 10 18 21
-11.185 -20.493 -8.986 6 14 17
-10.978 -20.432 -9.021 8 16 19
-10.768 -20.379 -9.051 11 19 22
-10.556 -20.334 -9.078 8 12 23
-10.343 -20.291 -9.110 25 29 30
-10.129 -20.251 -9.143 60 64 50
-9.912 -20.231 -9.158 62 64 51
-9.695 -19.462 -10.539 47 56 53
-9.459 -19.465 -10.540 48 57 56
-9.224 -19.493 -10.514 48 57 56
-8.989 -19.522 -10.496 49 57 59
-8.757 -19.559 -10.473 47 55 58
-8.525 -19.599 -10.455 52 60 63
-8.294 -19.643 -10.438 48 56 59
-8.064 -19.688 -10.427 50 58 61
-7.835 -19.736 -10.421 51 59 62
-7.608 -19.790 -10.414 49 57 60
-7.381 -19.848 -10.408 52 60 63
-7.157 -19.913 -10.401 52 60 63
-6.934 -19.983 -10.394 51 59 62
-6.713 -20.059 -10.386 50 58 61
-6.495 -20.141 -10.379 51 59 62
-6.279 -20.228 -10.370 51 59 62
-6.065 -20.322 -10.360 55 60 64
-5.855 -20.421 -10.349 53 58 62
-5.647 -20.525 -10.338 52 57 61
-5.442 -20.635 -10.328 53 58 62
-5.239 -20.748 -10.318 52 59 65
-5.040 -20.868 -10.307 51 61 63
-4.843 -20.990 -10.298 52 62 63
-4.650 -21.118 -10.288 51 61 62
-4.460 -21.250 -10.278 53 61 63
-4.273 -21.386 -10.271 54 59 63
-4.090 -21.527 -10.262 53 58 62
-3.912 -21.674 -10.250 53 58 62
-3.738 -21.825 -10.238 54 59 63
-3.566 -21.979 -10.228 54 59 65
-3.397 -22.135 -10.222 55 60 66
-3.233 -22.297 -10.213 54 59 65
-3.074 -22.463 -10.202 51 56 60
-2.921 -22.635 -10.189 54 59 63
-2.771 -22.809 -10.178 54 59 63
-2.626 -22.986 -10.167 54 59 63
-2.485 -23.167 -10.155 54 59 62
-2.351 -23.353 -10.139 54 59 62
-2.223 -23.543 -10.123 56 61 64
-2.099 -23.735 -10.107 55 60 63
-1.979 -23.928 -10.094 53 58 62
-1.864 -24.125 -10.079 50 55 59
-1.756 -24.326 -10.061 53 58 62
-1.654 -24.529 -10.044 53 58 62
-1.558 -24.735 -10.024 53 58 62
-1.465 -24.942 -10.007 55 60 64
-1.377 -25.150 -9.991 56 61 65
-1.297 -25.362 -9.971 57 62 66
-1.222 -25.575 -9.951 57 62 66
-1.153 -25.789 -9.931 55 60 64
-1.087 -26.004 -9.915 57 62 66
-1.024 -26.219 -9.901 56 61 65
-0.966 -26.436 -9.888 56 64 67
-0.916 -26.655 -9.871 55 65 67
-0.873 -26.874 -9.851 55 65 67
-0.835 -27.094 -9.834 56 66 68
-0.800 -27.315 -9.818 56 66 68
-0.770 -27.535 -9.804 56 66 68
-0.750 -27.757 -9.785 57 67 69
-0.740 -27.980 -9.759 57 67 69
-0.735 -28.202 -9.733 56 63 69
-0.733 -28.423 -9.710 57 64 70
-0.736 -28.644 -9.689 57 64 70
-0.748 -28.864 -9.664 58 65 71
-0.768 -29.084 -9.634 57 66 71
-0.794 -29.303 -9.604 55 64 69
-0.823 -29.520 -9.576 58 67 72
-0.856 -29.736 -9.549 56 65 70
-0.895 -29.951 -9.523 61 68 74
-0.939 -30.164 -9.497 60 65 71
-0.989 -30.375 -9.470 61 66 72
-1.040 -30.586 -9.447 62 67 73
-1.095 -30.795 -9.427 63 66 71
-1.154 -31.002 -9.408 63 66 71
-1.218 -31.207 -9.388 62 65 70
-1.288 -31.410 -9.367 65 68 73
-1.362 -31.612 -9.349 64 67 74
-1.440 -31.811 -9.329 65 68 75
-1.521 -32.009 -9.313 66 69 76
-1.608 -32.204 -9.296 66 69 76
-1.698 -32.396 -9.280 65 65 73
-1.792 -32.587 -9.266 69 69 77
-1.890 -32.775 -9.251 67 67 75
-1.993 -32.961 -9.236 70 70 78
-2.103 -33.142 -9.218 66 69 76
-2.221 -33.318 -9.195 65 68 75
-2.344 -33.490 -9.169 64 67 74
-2.471 -33.658 -9.143 66 69 76
-2.603 -33.822 -9.115 69 70 75
-2.739 -33.983 -9.087 69 70 75
-2.879 -34.139 -9.059 69 70 75
-3.020 -34.293 -9.033 68 69 74
-3.162 -34.445 -9.013 65 66 70
-3.306 -34.595 -8.995 65 66 70
-3.452 -34.742 -8.981 67 68 72
-3.600 -34.887 -8.967 66 67 71
-3.751 -35.028 -8.954 63 63 65
-3.905 -35.165 -8.942 65 65 67
-4.061 -35.299 -8.932 64 64 66
-4.220 -35.431 -8.924 63 63 65
-4.380 -35.560 -8.918 64 64 64
-4.539 -35.691 -8.922 63 63 63
-4.699 -35.820 -8.929 62 62 62
-4.861 -35.948 -8.940 64 64 64
-5.018 -36.083 -8.970 66 65 63
-5.177 -36.218 -9.005 63 62 60
-5.340 -36.350 -9.040 65 64 62
-5.506 -36.479 -9.076 72 68 67
-5.673 -36.607 -9.118 77 73 72
-5.844 -36.733 -9.160 81 77 74
-6.018 -36.858 -9.207 85 80 76
-6.196 -36.977 -9.252 82 74 71
-6.377 -37.094 -9.298 76 72 69
-6.561 -37.208 -9.347 87 83 80
-6.749 -37.317 -9.396 67 63 60
-6.939 -37.424 -9.447 72 68 65
-7.133 -37.530 -9.503 107 105 106
-7.329 -37.631 -9.558 85 85 87
-7.529 -37.728 -9.613 91 91 91
-7.733 -37.821 -9.670 92 92 90
-7.940 -37.907 -9.724 102 101 97
-8.149 -37.994 -9.785 119 119 117
-8.361 -38.075 -9.846 22 26 29
-8.577 -38.149 -9.903 24 31 39
-8.795 -38.219 -9.962 27 31 40
-9.016 -38.287 -10.026 25 30 36
-9.239 -38.351 -10.092 24 29 35
-9.466 -38.391 -10.132 29 32 37
-9.695 -38.410 -10.154 40 43 48
-9.924 -38.421 -10.172 66 65 71
-10.153 -38.422 -10.184 83 81 84
-10.382 -38.408 -10.184 105 100 104
-10.610 -38.379 -10.172 101 100 98
-10.837 -38.349 -10.166 102 101 99
-11.064 -38.314 -10.160 96 95 93
-11.289 -38.271 -10.152 99 98 96
-11.512 -38.219 -10.139 104 100 97
-11.732 -38.155 -10.115 105 100 96
-11.948 -38.078 -10.083 103 98 94
-12.160 -37.993 -10.046 103 98 94
-12.369 -37.899 -10.004 91 86 83
-12.575 -37.802 -9.966 90 84 84
-12.781 -37.711 -9.941 93 84 85
-12.988 -37.621 -9.924 91 82 83
-13.191 -37.525 -9.907 91 80 84
-13.391 -37.424 -9.888 95 84 90
-13.587 -37.314 -9.865 93 82 86
-13.779 -37.198 -9.839 94 82 84
-13.967 -37.077 -9.811 94 84 83
-14.151 -36.950 -9.782 94 84 83
-14.330 -36.818 -9.751 94 84 83
-14.507 -36.684 -9.723 92 82 81
-14.682 -36.548 -9.699 86 74 74
-14.854 -36.409 -9.676 95 83 83
-15.019 -36.263 -9.648 95 83 83
-15.180 -36.113 -9.619 92 80 80
-15.337 -35.960 -9.592 89 79 78
-15.492 -35.804 -9.566 89 79 78
-15.644 -35.648 -9.545 86 76 75
-15.791 -35.487 -9.522 87 77 76
-15.935 -35.324 -9.500 86 76 75
-16.075 -35.159 -9.481 86 76 75
-16.214 -34.993 -9.466 86 76 75
-16.350 -34.825 -9.455 85 75 74
-16.481 -34.654 -9.442 85 75 74
-16.609 -34.480 -9.429 85 75 74
-16.732 -34.303 -9.418 85 75 74
-16.851 -34.124 -9.407 83 73 72
-16.966 -33.943 -9.397 85 75 74
-17.075 -33.757 -9.384 84 74 73
-17.178 -33.569 -9.370 84 74 73
-17.277 -33.379 -9.356 84 74 73
-17.370 -33.187 -9.342 83 73 72
-17.459 -32.992 -9.329 83 73 72
-17.542 -32.796 -9.314 81 71 70
-17.620 -32.597 -9.298 82 72 71
-17.692 -32.397 -9.281 82 72 71
-17.756 -32.194 -9.261 82 72 71
-17.814 -31.989 -9.239 81 71 70
-17.866 -31.783 -9.215 81 71 70
-17.912 -31.577 -9.190 81 71 70
-17.951 -31.369 -9.164 78 68 67
-17.982 -31.160 -9.134 80 70 69
-18.003 -30.950 -9.097 81 71 70
-18.019 -30.740 -9.061 80 70 69
-18.029 -30.530 -9.024 80 70 69
-18.032 -30.321 -8.984 81 71 70
-18.028 -30.112 -8.943 79 69 68
-18.022 -29.904 -8.906 77 67 66
-18.012 -29.698 -8.869 79 69 68
-17.997 -29.492 -8.833 78 68 67
-17.978 -29.287 -8.798 81 71 70
-17.956 -29.084 -8.766 79 69 68
-17.932 -28.882 -8.739 80 70 69
-17.906 -28.681 -8.715 78 68 67
-17.877 -28.480 -8.692 80 70 69
-17.846 -28.281 -8.674 81 71 72
-17.810 -28.083 -8.657 82 72 73
-17.773 -27.886 -8.643 82 72 73
-17.731 -27.690 -8.629 83 73 74
-17.684 -27.495 -8.616 80 70 71
-17.641 -27.300 -8.614 82 72 73
-17.599 -27.104 -8.619 84 74 75
-17.555 -26.909 -8.629 84 74 75
-17.507 -26.714 -8.639 84 74 73
-17.451 -26.522 -8.645 86 76 75
-17.397 -26.328 -8.661 83 73 72
-17.340 -26.135 -8.679 85 75 74
-17.276 -25.944 -8.695 86 76 75
-17.212 -25.752 -8.716 85 75 74
-17.142 -25.562 -8.736 86 76 75
-17.055 -25.379 -8.739 98 88 87
-16.959 -25.201 -8.734 97 89 86
-16.759 -25.082 -8.581 92 87 83
-16.577 -24.959 -8.457 90 85 81
-16.115 -25.018 -7.904 84 79 75
-15.834 -24.982 -7.623 88 89 83
-15.705 -24.851 -7.581 73 76 69
-15.592 -24.711 -7.568 49 52 45
-15.487 -24.564 -7.575 43 46 39
-15.531 -24.294 -7.840 41 45 46
-15.582 -24.006 -8.133 8 13 17
-15.496 -23.826 -8.203 8 15 21
-15.415 -23.638 -8.294 5 12 18
-15.313 -23.466 -8.355 7 12 15
-18.485 -19.852 -14.613 19 24 30
-18.313 -19.575 -14.724 13 22 29
-18.115 -19.323 -14.800 17 24 30
-17.906 -19.078 -14.869 17 24 32
-17.684 -18.846 -14.924 16 23 31
-17.448 -18.630 -14.962 19 26 34
-17.198 -18.430 -14.983 20 27 35
-16.937 -18.244 -14.990 17 26 31
-16.669 -18.071 -14.989 19 27 30
-16.380 -17.931 -14.946 48 52 55
-15.109 -19.526 -12.317 60 64 65
-13.563 -21.846 -8.696 102 106 105
-13.393 -21.737 -8.719 104 109 105
-13.222 -21.627 -8.751 66 68 63
-13.047 -21.520 -8.782 45 46 40
-12.872 -21.413 -8.820 28 30 27
-12.694 -21.308 -8.861 23 29 27
-12.511 -21.213 -8.894 20 29 28
-12.324 -21.124 -8.925 13 23 24
-12.137 -21.032 -8.965 7 14 22
-11.946 -20.949 -9.000 10 14 23
-11.750 -20.881 -9.021 6 10 19
-11.552 -20.812 -9.049 7 11 20
-11.353 -20.747 -9.077 5 15 17
-11.152 -20.685 -9.109 6 16 18
-10.950 -20.623 -9.147 10 19 24
-10.745 -20.569 -9.181 11 20 27
-10.538 -20.519 -9.216 20 25 31
-10.330 -20.470 -9.256 47 52 48
-10.120 -20.430 -9.292 57 60 49
-9.908 -20.400 -9.320 57 60 49
-9.695 -19.445 -10.997 48 57 54
-9.458 -19.450 -10.993 49 58 55
-9.223 -19.478 -10.968 48 57 56
-8.988 -19.505 -10.951 50 58 60
-8.755 -19.542 -10.928 51 59 62
-8.523 -19.581 -10.910 48 56 59
-8.292 -19.626 -10.893 52 60 63
-8.061 -19.670 -10.882 49 57 60
-7.831 -19.717 -10.878 51 59 62
-7.603 -19.770 -10.871 49 57 60
-7.376 -19.828 -10.865 52 60 63
-7.151 -19.893 -10.859 52 60 63
-6.927 -19.962 -10.853 52 60 63
-6.706 -20.037 -10.848 51 59 62
-6.486 -20.116 -10.842 52 60 63
-6.269 -20.202 -10.835 52 60 63
-6.054 -20.295 -10.827 55 60 64
-5.843 -20.395 -10.815 54 59 63
-5.634 -20.499 -10.805 53 58 62
-5.428 -20.608 -10.794 53 58 62
-5.225 -20.721 -10.785 52 59 65
-5.025 -20.840 -10.775 52 60 63
-4.828 -20.965 -10.763 53 61 63
-4.635 -21.095 -10.751 52 60 62
-4.446 -21.228 -10.739 52 62 63
-4.258 -21.365 -10.730 51 61 62
-4.075 -21.506 -10.721 50 60 61
-3.896 -21.653 -10.709 50 60 61
-3.721 -21.805 -10.696 51 61 63
-3.549 -21.959 -10.687 51 61 63
-3.379 -22.116 -10.681 52 62 64
-3.213 -22.276 -10.674 51 61 63
-3.054 -22.443 -10.663 51 61 63
-2.900 -22.615 -10.650 50 60 61
-2.749 -22.789 -10.639 50 60 61
-2.605 -22.968 -10.625 50 60 61
-2.464 -23.150 -10.612 49 59 61
-2.331 -23.337 -10.595 49 59 61
-2.203 -23.528 -10.577 50 60 62
-2.078 -23.720 -10.561 50 60 62
-1.958 -23.914 -10.546 51 60 65
-1.842 -24.111 -10.533 51 60 65
-1.732 -24.311 -10.518 52 61 66
-1.627 -24.514 -10.502 52 61 66
-1.529 -24.719 -10.485 53 62 67
-1.435 -24.927 -10.468 53 62 67
-1.345 -25.135 -10.453 53 62 67
-1.262 -25.346 -10.437 56 65 70
-1.186 -25.560 -10.418 53 62 67
-1.116 -25.775 -10.397 57 66 71
-1.049 -25.991 -10.381 55 64 69
-0.985 -26.207 -10.369 54 63 68
-0.924 -26.424 -10.358 57 64 70
-0.871 -26.642 -10.344 57 64 70
-0.828 -26.863 -10.325 58 65 71
-0.788 -27.084 -10.308 58 65 71
-0.753 -27.305 -10.293 56 63 69
-0.721 -27.527 -10.280 56 63 69
-0.700 -27.750 -10.261 58 65 71
-0.690 -27.973 -10.233 57 64 70
-0.686 -28.197 -10.206 57 62 66
-0.684 -28.419 -10.182 58 63 67
-0.686 -28.641 -10.161 59 64 68
-0.697 -28.863 -10.135 59 64 68
-0.717 -29.084 -10.104 56 64 67
-0.743 -29.304 -10.073 59 67 70
-0.774 -29.522 -10.043 57 65 68
-0.808 -29.740 -10.015 61 69 72
-0.847 -29.955 -9.988 61 66 70
-0.892 -30.170 -9.960 62 65 70
-0.941 -30.382 -9.932 60 63 68
-0.993 -30.594 -9.908 61 64 69
-1.048 -30.804 -9.888 62 65 72
-1.106 -31.013 -9.870 60 63 70
-1.168 -31.220 -9.852 61 64 71
-1.236 -31.425 -9.833 64 67 74
-1.308 -31.628 -9.816 64 67 72
-1.386 -31.829 -9.799 64 67 72
-1.467 -32.028 -9.783 64 67 72
-1.553 -32.225 -9.766 64 67 72
-1.643 -32.419 -9.750 67 68 73
-1.737 -32.612 -9.737 66 67 72
-1.835 -32.801 -9.723 67 68 73
-1.938 -32.988 -9.709 66 67 72
-2.048 -33.171 -9.691 62 65 70
-2.167 -33.349 -9.666 61 64 69
-2.291 -33.521 -9.638 63 66 71
-2.421 -33.690 -9.609 62 65 70
-2.554 -33.856 -9.580 63 64 69
-2.691 -34.016 -9.550 63 64 68
-2.833 -34.173 -9.519 65 66 70
-2.975 -34.328 -9.493 64 65 69
-3.117 -34.482 -9.473 67 68 72
-3.260 -34.635 -9.459 66 67 71
-3.404 -34.786 -9.447 67 68 72
-3.552 -34.932 -9.435 66 67 71
-3.705 -35.073 -9.421 66 66 68
-3.861 -35.211 -9.407 63 63 65
-4.020 -35.345 -9.393 65 65 67
-4.181 -35.476 -9.382 67 67 69
-4.344 -35.604 -9.373 65 65 65
-4.508 -35.730 -9.366 66 66 66
-4.674 -35.853 -9.363 65 65 65
-4.843 -35.974 -9.362 66 66 66
-5.007 -36.099 -9.376 69 69 69
-5.174 -36.223 -9.394 66 66 66
-5.346 -36.340 -9.406 65 65 65
-5.522 -36.450 -9.414 65 65 65
-5.697 -36.563 -9.434 65 65 65
-5.875 -36.673 -9.456 61 61 59
-6.054 -36.781 -9.481 59 60 55
-6.237 -36.884 -9.505 67 66 62
-6.420 -36.990 -9.538 84 80 77
-6.606 -37.090 -9.571 80 76 73
-6.795 -37.188 -9.605 97 93 90
-6.985 -37.286 -9.647 94 90 87
-7.177 -37.384 -9.695 78 74 73
-7.371 -37.482 -9.749 99 95 94
-7.567 -37.578 -9.807 72 68 65
-7.767 -37.670 -9.866 75 72 67
-7.970 -37.755 -9.921 108 104 101
-8.175 -37.844 -9.987 106 106 106
-8.383 -37.928 -10.056 35 39 42
-8.595 -38.001 -10.114 22 31 38
-8.810 -38.070 -10.174 27 31 42
-9.027 -38.133 -10.235 28 32 43
-9.247 -38.188 -10.291 29 33 44
-9.470 -38.237 -10.345 28 32 43
-9.695 -38.278 -10.397 27 34 44
-9.921 -38.312 -10.446 29 33 44
-10.149 -38.337 -10.491 30 33 42
-10.379 -38.361 -10.543 33 33 41
-10.610 -38.374 -10.587 44 43 48
-10.840 -38.374 -10.621 72 71 76
-11.071 -38.363 -10.648 90 89 94
-11.302 -38.347 -10.676 100 99 104
-11.532 -38.323 -10.702 101 100 98
-11.762 -38.291 -10.723 100 99 97
-11.990 -38.246 -10.736 96 95 93
-12.213 -38.184 -10.732 93 92 90
-12.429 -38.099 -10.702 97 96 92
-12.640 -37.999 -10.659 98 94 91
-12.840 -37.874 -10.588 99 95 92
-13.037 -37.749 -10.523 102 97 94
-13.237 -37.635 -10.480 97 91 91
-13.433 -37.518 -10.439 90 84 84
-13.627 -37.398 -10.401 92 84 82
-13.818 -37.275 -10.365 92 82 80
-14.004 -37.147 -10.327 91 79 79
-14.188 -37.015 -10.291 94 82 82
-14.368 -36.881 -10.256 94 82 82
-14.545 -36.744 -10.225 95 83 83
-14.722 -36.607 -10.200 92 82 81
-14.894 -36.466 -10.174 92 82 81
-15.062 -36.321 -10.149 93 83 82
-15.226 -36.171 -10.122 91 81 80
-15.384 -36.017 -10.093 90 80 79
-15.540 -35.860 -10.066 85 75 74
-15.692 -35.701 -10.041 88 78 77
-15.841 -35.540 -10.018 86 76 75
-15.987 -35.376 -9.999 85 75 74
-16.129 -35.210 -9.979 85 75 74
-16.268 -35.042 -9.962 85 75 74
-16.404 -34.872 -9.947 84 74 73
-16.537 -34.699 -9.935 85 75 74
-16.666 -34.525 -9.924 85 75 74
-16.791 -34.347 -9.913 84 74 73
-16.913 -34.167 -9.904 82 72 71
-17.029 -33.985 -9.893 85 75 74
-17.140 -33.799 -9.883 84 74 73
-17.247 -33.611 -9.872 84 74 73
-17.348 -33.419 -9.859 84 74 73
-17.443 -33.225 -9.845 83 73 72
-17.532 -33.029 -9.830 83 73 72
-17.616 -32.831 -9.816 85 75 74
-17.695 -32.630 -9.800 82 72 71
-17.768 -32.428 -9.783 83 73 72
-17.834 -32.224 -9.763 83 73 72
-17.893 -32.017 -9.740 82 72 71
-17.945 -31.809 -9.715 82 72 71
-17.990 -31.600 -9.689 80 70 69
-18.030 -31.391 -9.661 82 72 71
-18.063 -31.180 -9.632 79 69 68
-18.089 -30.969 -9.600 80 70 69
-18.107 -30.757 -9.565 79 69 68
-18.119 -30.546 -9.528 79 69 68
-18.123 -30.334 -9.489 79 69 68
-18.123 -30.124 -9.450 80 70 69
-18.120 -29.914 -9.415 78 68 67
