ply
format ascii 1.0
element vertex 1455
property float x
property float y
property float z
property uchar red
property uchar green
property uchar blue
end_header
-25.638 -34.327 2.533 63 64 56
-25.540 -34.269 2.533 13 14 8
-25.443 -34.209 2.533 20 22 11
-25.348 -34.145 2.534 37 40 29
-25.245 -34.098 2.534 35 39 24
-25.141 -34.051 2.533 55 58 41
-25.028 -34.026 2.530 50 52 39
-24.901 -34.035 2.524 36 37 31
-24.789 -34.015 2.521 50 51 46
-24.682 -33.985 2.520 10 12 9
-24.576 -33.953 2.519 7 12 8
-24.473 -33.910 2.521 30 31 26
-24.372 -33.859 2.523 81 82 76
-24.267 -33.818 2.524 0 1 0
-24.160 -33.786 2.525 36 37 31
-24.053 -33.747 2.527 45 45 37
-23.946 -33.705 2.530 54 55 50
-23.841 -33.644 2.534 31 33 30
-23.736 -33.565 2.542 17 22 15
-23.627 -33.496 2.548 18 23 16
-23.513 -33.449 2.553 17 23 13
-23.398 -33.396 2.558 38 44 32
-23.280 -33.342 2.564 60 66 54
-23.160 -36.323 2.189 203 191 175
-22.995 -31.547 2.659 77 73 70
-22.830 -31.531 2.662 80 84 85
-22.681 -31.758 2.640 87 83 71
-23.023 -36.853 2.137 252 239 222
-22.991 -36.873 2.136 248 236 222
-22.957 -36.876 2.136 252 243 228
-22.922 -36.874 2.137 255 244 226
-22.889 -36.880 2.137 253 245 226
-22.855 -36.884 2.137 250 241 224
-22.821 -36.889 2.137 247 240 222
-22.789 -36.902 2.137 186 180 164
-22.758 -36.917 2.136 194 186 173
-22.727 -36.931 2.136 191 183 170
-22.699 -36.952 2.135 186 178 167
-22.674 -36.982 2.133 187 180 170
-22.647 -37.003 2.132 188 181 173
-22.621 -37.024 2.131 189 182 174
-22.597 -37.050 2.130 182 179 170
-22.575 -37.078 2.128 180 180 170
-22.555 -37.109 2.126 184 185 179
-22.534 -37.136 2.125 159 159 157
-22.510 -37.156 2.124 50 52 49
-22.474 -37.158 2.126 59 56 49
-22.405 -37.111 2.134 243 231 217
-22.367 -37.115 2.136 243 231 215
-22.343 -37.139 2.135 243 231 217
-22.320 -37.165 2.134 240 230 218
-22.297 -37.189 2.134 241 232 217
-22.273 -37.212 2.134 242 233 218
-22.248 -37.235 2.134 245 237 224
-22.224 -37.258 2.134 235 229 217
-22.201 -37.282 2.134 244 237 221
-22.179 -37.306 2.133 244 237 221
-22.157 -37.332 2.133 241 233 220
-22.135 -37.357 2.133 182 174 163
-22.108 -37.377 2.134 246 237 222
-22.085 -37.401 2.134 245 235 223
-22.067 -37.430 2.134 243 235 224
-22.046 -37.456 2.134 242 238 229
-22.029 -37.485 2.134 240 234 222
-22.011 -37.513 2.134 242 238 229
-21.994 -37.542 2.134 238 233 229
-21.979 -37.571 2.134 239 236 229
-21.967 -37.603 2.133 240 240 230
-21.957 -37.635 2.133 237 238 230
-21.939 -37.663 2.133 177 177 169
-21.921 -37.691 2.133 233 229 217
-21.905 -37.721 2.134 247 242 222
-21.889 -37.750 2.134 244 242 221
-21.876 -37.781 2.134 240 237 218
-21.864 -37.812 2.134 239 238 220
-21.854 -37.844 2.134 238 238 230
-21.847 -37.877 2.134 228 227 222
-21.840 -37.910 2.134 228 227 222
-21.836 -37.943 2.134 212 211 206
-21.830 -37.976 2.134 212 214 211
-21.823 -38.008 2.134 161 161 153
-21.815 -38.041 2.134 245 237 224
-21.809 -38.074 2.134 228 220 207
-21.806 -38.107 2.134 232 229 214
-21.804 -38.140 2.134 225 222 207
-21.803 -38.173 2.134 224 221 206
-21.802 -38.207 2.134 179 176 161
-21.804 -38.240 2.134 65 61 50
-21.808 -38.273 2.133 113 109 98
-21.814 -38.306 2.133 66 63 54
-21.821 -38.339 2.132 90 88 89
-21.828 -38.371 2.132 110 114 117
-21.835 -38.403 2.131 168 169 161
-21.852 -38.434 2.130 234 228 212
-21.889 -38.461 2.127 54 45 46
-21.916 -38.487 2.125 105 98 92
-21.939 -38.514 2.123 187 180 172
-21.963 -38.540 2.122 207 200 192
-21.994 -38.563 2.119 111 104 96
-22.015 -38.587 2.118 210 203 187
-22.046 -38.608 2.116 182 179 164
-22.074 -38.629 2.114 196 194 182
-22.099 -38.649 2.112 202 196 184
-22.127 -38.668 2.110 191 187 175
-22.156 -38.685 2.108 200 196 185
-22.185 -38.701 2.106 197 195 183
-22.239 -38.703 2.101 195 195 187
-22.095 -38.914 2.124 239 225 212
-22.082 -38.960 2.128 213 171 157
-22.098 -38.988 2.128 110 62 50
-22.123 -39.009 2.127 124 77 69
-22.147 -39.030 2.127 90 45 39
-22.149 -39.070 2.129 240 219 188
-22.162 -39.100 2.130 140 123 113
-22.187 -39.122 2.129 171 160 156
-22.208 -39.146 2.129 156 163 147
-22.229 -39.170 2.130 193 176 168
-22.250 -39.196 2.130 219 215 206
-22.270 -39.221 2.130 218 220 209
-22.291 -39.247 2.131 182 163 156
-22.315 -39.269 2.131 145 111 102
-22.338 -39.292 2.131 206 173 164
-22.364 -39.313 2.132 141 111 101
-22.390 -39.333 2.132 182 155 144
-22.417 -39.352 2.132 179 161 149
-22.446 -39.367 2.131 183 163 154
-22.472 -39.387 2.132 226 202 178
-22.500 -39.404 2.132 186 154 139
-22.529 -39.419 2.132 49 35 24
-22.558 -39.435 2.132 122 119 104
-22.589 -39.447 2.132 155 156 140
-22.619 -39.458 2.131 104 108 91
-22.651 -39.467 2.131 176 158 148
-22.683 -39.475 2.130 133 114 110
-22.712 -39.491 2.131 150 124 109
-22.740 -39.510 2.132 228 209 194
-22.773 -39.515 2.131 173 170 161
-22.805 -39.523 2.131 210 207 198
-22.837 -39.530 2.131 188 184 173
-22.868 -39.540 2.131 188 181 171
-22.899 -39.547 2.131 196 183 175
-22.932 -39.553 2.131 181 181 171
-22.964 -39.557 2.131 181 187 177
-22.997 -39.562 2.131 182 167 160
-23.029 -39.568 2.131 175 172 165
-23.062 -39.569 2.131 182 175 167
-23.094 -39.569 2.131 187 181 169
-23.127 -39.574 2.131 170 170 160
-23.160 -39.580 2.132 215 210 204
-23.193 -39.583 2.132 168 168 156
-23.225 -39.575 2.132 143 129 120
-23.258 -39.568 2.131 82 68 65
-23.290 -39.565 2.131 110 103 97
-23.322 -39.561 2.131 113 104 97
-23.355 -39.557 2.131 79 70 63
-23.388 -39.554 2.131 72 63 56
-23.419 -39.545 2.131 57 48 41
-23.452 -39.543 2.132 48 42 30
-23.485 -39.540 2.132 105 99 83
-23.516 -39.529 2.132 64 60 48
-23.549 -39.525 2.132 94 81 72
-23.580 -39.514 2.132 77 60 52
-23.612 -39.504 2.132 85 68 60
-23.644 -39.495 2.133 87 70 62
-23.674 -39.482 2.132 84 65 58
-23.707 -39.476 2.133 57 39 29
-23.739 -39.464 2.133 57 39 29
-23.768 -39.448 2.133 80 61 55
-23.798 -39.434 2.133 90 72 70
-23.828 -39.419 2.133 90 72 70
-23.859 -39.408 2.134 86 68 66
-23.891 -39.395 2.135 81 63 61
-23.921 -39.380 2.135 76 66 64
-23.951 -39.363 2.135 65 58 48
-23.982 -39.349 2.136 226 218 207
-24.010 -39.330 2.136 71 60 54
-24.036 -39.308 2.136 69 59 50
-24.062 -39.286 2.136 71 61 51
-24.088 -39.265 2.136 69 59 49
-24.113 -39.242 2.136 69 59 49
-24.137 -39.217 2.136 70 57 48
-24.160 -39.193 2.136 77 58 51
-24.197 -39.180 2.138 222 206 183
-24.217 -39.152 2.138 187 184 167
-24.238 -39.125 2.137 199 195 186
-24.262 -39.100 2.138 187 181 169
-24.285 -39.075 2.138 169 163 151
-24.306 -39.048 2.138 187 181 169
-24.327 -39.020 2.138 173 173 163
-24.346 -38.992 2.138 193 185 172
-24.365 -38.963 2.138 185 182 175
-24.382 -38.933 2.138 180 179 174
-24.398 -38.902 2.138 184 182 169
-24.415 -38.872 2.138 187 185 172
-24.433 -38.843 2.139 190 186 174
-24.447 -38.811 2.139 163 157 145
-24.459 -38.778 2.139 186 187 169
-24.471 -38.746 2.138 141 132 125
-24.483 -38.714 2.138 128 141 131
-24.501 -38.683 2.139 158 135 119
-24.521 -38.653 2.140 61 46 27
-24.543 -38.623 2.141 60 44 28
-24.555 -38.590 2.142 58 42 26
-24.570 -38.557 2.142 65 49 33
-24.584 -38.523 2.143 55 39 23
-24.598 -38.490 2.144 52 39 22
-24.608 -38.455 2.144 48 35 18
-24.617 -38.420 2.145 47 34 17
-24.630 -38.385 2.146 77 57 33
-24.638 -38.349 2.146 80 58 35
-24.640 -38.313 2.146 83 62 41
-24.645 -38.277 2.146 91 73 51
-24.643 -38.240 2.146 104 86 66
-24.645 -38.204 2.146 122 104 84
-24.653 -38.167 2.147 138 120 100
-24.655 -38.130 2.148 147 129 109
-24.653 -38.093 2.148 164 147 121
-24.305 -38.099 2.114 151 142 125
-24.682 -37.737 2.158 168 161 153
-25.289 -37.478 2.223 162 158 147
-36.875 -32.949 3.448 124 125 119
-36.810 -32.586 3.455 155 158 151
-27.487 -36.322 2.466 145 133 121
-25.103 -37.321 2.212 160 154 132
-25.021 -37.303 2.205 159 153 137
-25.021 -37.245 2.208 163 153 141
-25.016 -37.189 2.210 168 159 144
-25.065 -37.098 2.219 142 133 118
-25.136 -36.989 2.230 139 130 115
-26.359 -36.102 2.379 94 88 72
-26.463 -35.913 2.398 55 53 40
-26.503 -35.760 2.410 31 31 21
-26.490 -35.641 2.416 28 30 25
-26.475 -35.519 2.422 11 16 12
-26.471 -35.383 2.431 51 56 49
-26.450 -35.258 2.437 10 16 6
-26.379 -35.175 2.438 18 24 14
-26.307 -35.093 2.438 6 10 11
-26.266 -34.978 2.444 51 57 43
-26.212 -34.872 2.448 82 90 67
-26.120 -34.809 2.446 31 36 29
-26.055 -34.711 2.450 36 38 35
-25.994 -34.608 2.454 31 35 21
-25.918 -34.521 2.456 48 53 33
-25.825 -34.455 2.456 34 38 21
-25.735 -34.386 2.457 9 12 0
-25.632 -34.336 2.455 43 45 31
-25.529 -34.287 2.454 28 30 19
-25.433 -34.226 2.454 43 45 32
-25.336 -34.168 2.455 80 83 72
-25.235 -34.117 2.455 23 25 11
-25.134 -34.065 2.455 60 63 44
-25.020 -34.043 2.452 53 54 38
-24.890 -34.062 2.445 19 20 15
-24.779 -34.042 2.443 19 19 17
-24.675 -34.003 2.443 25 27 22
-24.572 -33.964 2.444 14 19 12
-24.471 -33.917 2.445 13 16 9
-24.369 -33.871 2.446 21 24 17
-24.265 -33.829 2.448 25 28 21
-24.159 -33.790 2.449 23 26 19
-24.053 -33.751 2.451 46 46 38
-23.946 -33.708 2.453 60 60 50
-23.841 -33.644 2.458 37 38 30
-23.736 -33.567 2.464 36 39 28
-23.626 -33.508 2.468 26 29 22
-23.512 -33.457 2.472 13 16 7
-23.398 -33.392 2.478 55 58 47
-23.280 -33.343 2.482 43 46 35
-23.160 -34.171 2.334 20 21 15
-22.995 -31.531 2.550 82 81 77
-22.829 -31.517 2.552 91 87 86
-22.809 -33.484 2.391 82 83 78
-23.023 -36.851 2.114 73 72 67
-22.990 -36.868 2.113 131 127 124
-22.956 -36.868 2.114 167 163 160
-22.921 -36.866 2.114 84 80 77
-22.888 -36.873 2.114 94 93 88
-22.854 -36.877 2.115 103 102 97
-22.819 -36.882 2.115 127 124 117
-22.787 -36.893 2.115 181 178 171
-22.755 -36.908 2.114 180 177 170
-22.725 -36.923 2.114 189 184 178
-22.696 -36.944 2.113 184 180 171
-22.668 -36.965 2.112 183 179 170
-22.639 -36.984 2.112 185 181 170
-22.613 -37.006 2.111 184 180 168
-22.588 -37.031 2.110 183 179 167
-22.563 -37.054 2.109 185 179 167
-22.540 -37.081 2.108 182 176 164
-22.521 -37.112 2.106 190 186 175
-22.498 -37.137 2.105 184 181 172
-22.458 -37.131 2.108 183 175 162
-22.395 -37.095 2.113 243 234 219
-22.360 -37.104 2.114 245 233 219
-22.334 -37.127 2.114 243 231 217
-22.310 -37.151 2.113 243 231 215
-22.286 -37.175 2.113 245 233 219
-22.261 -37.198 2.113 245 233 219
-22.236 -37.221 2.113 249 237 223
-22.212 -37.245 2.113 240 228 212
-22.188 -37.269 2.113 250 234 219
-22.166 -37.294 2.112 248 234 221
-22.146 -37.321 2.112 249 237 223
-22.122 -37.346 2.112 182 173 156
-22.096 -37.367 2.113 244 237 219
-22.073 -37.392 2.113 246 237 222
-22.053 -37.420 2.113 248 234 221
-22.034 -37.447 2.113 250 236 225
-22.016 -37.476 2.113 251 234 218
-21.997 -37.504 2.113 251 235 220
-21.979 -37.533 2.113 249 233 220
-21.963 -37.562 2.113 249 236 219
-21.951 -37.594 2.112 248 235 218
-21.940 -37.626 2.112 255 243 226
-21.922 -37.655 2.112 208 195 179
-21.900 -37.682 2.113 247 235 219
-21.882 -37.711 2.113 253 236 228
-21.867 -37.741 2.114 254 237 230
-21.853 -37.773 2.114 248 233 228
-21.841 -37.805 2.114 252 237 234
-21.830 -37.837 2.114 250 236 223
-21.823 -37.870 2.114 244 231 214
-21.815 -37.903 2.114 251 238 221
-21.811 -37.937 2.113 255 242 225
-21.806 -37.971 2.113 252 239 223
-21.800 -38.004 2.113 189 176 160
-21.790 -38.037 2.113 255 242 226
-21.782 -38.070 2.114 250 237 220
-21.780 -38.104 2.114 251 239 223
-21.777 -38.138 2.114 248 236 220
-21.778 -38.172 2.113 248 236 220
-21.779 -38.206 2.113 253 241 225
-21.781 -38.240 2.113 251 235 220
-21.783 -38.274 2.113 255 245 226
-21.787 -38.308 2.113 248 236 214
-21.794 -38.341 2.112 248 235 219
-21.803 -38.374 2.112 255 247 230
-21.813 -38.406 2.111 255 243 229
-21.839 -38.436 2.109 195 182 176
-21.875 -38.463 2.107 174 165 158
-21.903 -38.490 2.105 38 31 21
-21.926 -38.517 2.104 187 180 170
-21.951 -38.543 2.102 190 183 175
-21.982 -38.566 2.100 82 75 69
-22.007 -38.590 2.099 227 219 206
-22.038 -38.610 2.097 100 96 87
-22.070 -38.630 2.095 126 122 121
-22.095 -38.651 2.094 207 200 192
-22.128 -38.667 2.092 195 186 177
-22.159 -38.684 2.090 202 193 184
-22.188 -38.700 2.088 199 192 182
-22.207 -38.720 2.087 199 195 184
-22.228 -38.738 2.087 205 198 190
-22.246 -38.758 2.086 199 194 188
-22.290 -38.761 2.083 195 188 180
-22.078 -38.925 2.105 241 227 214
-22.070 -38.968 2.107 175 166 157
-22.086 -38.996 2.108 179 172 162
-22.111 -39.017 2.107 182 172 160
-22.134 -39.040 2.107 185 174 156
-22.142 -39.076 2.108 240 227 195
-22.156 -39.106 2.109 159 142 134
-22.179 -39.129 2.108 160 149 147
-22.200 -39.153 2.109 182 188 174
-22.222 -39.177 2.109 194 181 172
-22.244 -39.202 2.109 172 162 153
-22.264 -39.228 2.109 156 149 143
-22.284 -39.255 2.110 177 170 160
-22.305 -39.281 2.110 180 174 158
-22.328 -39.306 2.111 187 181 165
-22.353 -39.328 2.111 170 164 148
-22.380 -39.347 2.111 202 195 179
-22.407 -39.367 2.111 201 188 180
-22.437 -39.382 2.111 199 181 177
-22.465 -39.399 2.111 240 223 203
-22.493 -39.416 2.111 190 171 156
-22.523 -39.432 2.111 192 169 163
-22.552 -39.446 2.111 216 193 185
-22.583 -39.459 2.111 209 189 180
-22.615 -39.469 2.110 215 195 186
-22.647 -39.477 2.110 224 202 191
-22.680 -39.484 2.109 197 177 168
-22.708 -39.501 2.110 130 103 82
-22.737 -39.520 2.111 206 191 172
-22.770 -39.525 2.110 177 177 167
-22.801 -39.534 2.110 223 223 213
-22.834 -39.539 2.110 214 210 198
-22.865 -39.550 2.110 192 184 171
-22.898 -39.557 2.110 216 204 192
-22.930 -39.563 2.110 165 165 153
-22.963 -39.567 2.110 176 181 174
-22.995 -39.572 2.110 174 159 154
-23.028 -39.577 2.110 171 169 157
-23.061 -39.579 2.110 181 173 162
-23.094 -39.581 2.110 199 192 176
-23.126 -39.587 2.110 172 170 157
-23.160 -39.592 2.111 191 188 183
-23.193 -39.594 2.111 182 179 170
-23.226 -39.586 2.110 159 137 126
-23.258 -39.581 2.110 139 110 102
-23.291 -39.579 2.110 159 126 119
-23.324 -39.577 2.110 210 173 167
-23.357 -39.574 2.111 137 100 94
-23.390 -39.571 2.111 211 174 168
-23.423 -39.563 2.111 154 127 116
-23.456 -39.562 2.111 134 113 96
-23.489 -39.553 2.111 143 125 105
-23.521 -39.545 2.111 142 125 109
-23.554 -39.540 2.111 121 109 95
-23.585 -39.529 2.111 178 169 154
-23.617 -39.520 2.111 175 166 151
-23.650 -39.510 2.112 167 158 143
-23.680 -39.496 2.111 143 131 115
-23.712 -39.486 2.112 131 120 102
-23.741 -39.471 2.112 93 82 64
-23.771 -39.454 2.111 127 114 105
-23.802 -39.442 2.112 131 125 113
-23.833 -39.429 2.112 177 174 159
-23.864 -39.416 2.112 151 148 133
-23.895 -39.401 2.113 180 177 162
-23.924 -39.384 2.113 137 129 116
-23.953 -39.367 2.113 128 116 100
-23.986 -39.355 2.114 220 204 188
-24.013 -39.334 2.114 131 113 101
-24.040 -39.313 2.114 84 68 55
-24.065 -39.290 2.114 177 163 150
-24.091 -39.268 2.114 101 87 74
-24.115 -39.244 2.114 185 171 158
-24.138 -39.219 2.113 129 117 103
-24.161 -39.194 2.113 119 102 92
-24.200 -39.183 2.115 232 218 192
-24.221 -39.156 2.115 180 177 162
-24.243 -39.130 2.115 172 168 159
-24.266 -39.104 2.115 183 177 165
-24.288 -39.077 2.115 177 171 159
-24.309 -39.050 2.115 183 177 165
-24.329 -39.022 2.115 213 210 201
-24.349 -38.993 2.115 181 171 159
-24.367 -38.964 2.115 181 181 173
-24.383 -38.933 2.115 166 167 161
-24.399 -38.903 2.115 189 187 172
-24.418 -38.874 2.116 208 206 191
-24.437 -38.845 2.116 183 180 165
-24.452 -38.813 2.116 178 172 158
-24.464 -38.781 2.116 210 212 191
-24.480 -38.749 2.116 173 164 155
-24.493 -38.717 2.116 174 187 177
-24.509 -38.686 2.117 160 137 123
-24.522 -38.654 2.117 63 56 40
-24.541 -38.622 2.118 68 60 49
-24.554 -38.589 2.118 70 61 52
-24.566 -38.556 2.118 65 56 49
-24.578 -38.522 2.119 69 58 52
-24.590 -38.488 2.119 64 51 45
-24.601 -38.454 2.119 71 58 52
-24.610 -38.419 2.120 63 50 44
-24.624 -38.384 2.121 183 165 145
-24.629 -38.348 2.121 94 76 56
-24.629 -38.312 2.121 87 71 58
-24.635 -38.276 2.121 87 75 61
-24.644 -38.240 2.122 89 77 61
-24.648 -38.204 2.122 87 73 60
-24.651 -38.167 2.122 91 77 64
-24.653 -38.130 2.123 90 76 63
-24.647 -38.094 2.123 86 73 54
-24.289 -37.928 2.096 154 149 143
-24.655 -37.786 2.128 169 160 151
-24.809 -37.695 2.142 168 158 148
-25.771 -37.306 2.227 162 155 145
-36.966 -32.914 3.213 123 124 119
-36.920 -32.540 3.221 154 157 150
-27.312 -36.399 2.372 138 126 114
-25.036 -37.353 2.170 162 156 134
-24.993 -37.317 2.168 170 164 148
-25.012 -37.250 2.172 160 151 136
-25.007 -37.194 2.174 162 155 137
-25.033 -37.117 2.179 163 156 138
-25.400 -36.822 2.217 127 120 102
-26.420 -36.062 2.322 57 54 39
-26.484 -35.899 2.333 84 84 72
-26.502 -35.761 2.341 35 36 28
-26.496 -35.636 2.347 19 24 20
-26.493 -35.504 2.354 28 33 26
-26.471 -35.383 2.359 21 26 20
-26.406 -35.298 2.359 20 25 21
-26.334 -35.217 2.359 11 15 14
-26.281 -35.119 2.362 15 19 18
-26.241 -35.004 2.366 14 19 13
-26.178 -34.909 2.369 18 23 17
-26.100 -34.831 2.369 15 20 16
-26.040 -34.730 2.372 54 56 55
-25.973 -34.635 2.375 57 60 53
-25.899 -34.547 2.377 38 42 28
-25.810 -34.476 2.377 30 34 20
-25.724 -34.402 2.378 55 59 36
-25.628 -34.342 2.378 48 51 32
-25.526 -34.292 2.377 41 43 30
-25.429 -34.235 2.377 40 42 29
-25.333 -34.174 2.378 39 41 27
-25.235 -34.116 2.379 26 29 8
-25.135 -34.063 2.379 68 71 44
-25.024 -34.035 2.377 56 56 30
-24.893 -34.055 2.371 52 53 37
-24.779 -34.042 2.369 28 30 17
-24.677 -33.999 2.369 50 54 40
-24.573 -33.962 2.369 53 59 49
-24.472 -33.914 2.371 33 38 31
-24.369 -33.871 2.372 30 35 28
-24.264 -33.831 2.373 21 26 19
-24.157 -33.796 2.373 17 22 15
-24.052 -33.753 2.375 30 30 22
-23.948 -33.694 2.378 42 40 28
-23.845 -33.618 2.383 35 36 20
-23.738 -33.554 2.387 50 52 39
-23.626 -33.509 2.390 19 22 15
-23.512 -33.456 2.393 25 28 19
-23.398 -33.395 2.398 17 20 9
-23.279 -33.356 2.401 25 28 17
-23.160 -31.637 2.433 46 47 49
-22.995 -31.537 2.439 75 76 71
-22.830 -31.522 2.441 80 79 75
-23.049 -36.739 2.099 78 78 80
-23.023 -36.849 2.092 42 46 55
-22.990 -36.863 2.091 22 25 32
-22.955 -36.862 2.091 26 25 31
-22.920 -36.860 2.092 30 34 37
-22.886 -36.867 2.092 74 79 83
-22.852 -36.873 2.092 19 21 20
-22.818 -36.878 2.092 19 18 16
-22.786 -36.890 2.092 30 30 30
-22.755 -36.907 2.091 12 13 18
-22.724 -36.921 2.091 24 23 28
-22.694 -36.940 2.091 18 18 18
-22.666 -36.960 2.090 72 73 68
-22.638 -36.981 2.089 165 166 158
-22.610 -37.001 2.089 189 189 181
-22.584 -37.024 2.088 177 175 163
-22.557 -37.043 2.088 189 183 171
-22.532 -37.066 2.087 193 184 175
-22.508 -37.091 2.087 178 174 162
-22.482 -37.111 2.086 180 176 164
-22.444 -37.111 2.088 198 188 176
-22.389 -37.087 2.091 237 228 213
-22.357 -37.101 2.091 241 232 217
-22.332 -37.125 2.091 238 229 214
-22.308 -37.149 2.091 241 232 217
-22.283 -37.172 2.091 246 237 220
-22.258 -37.195 2.090 239 232 216
-22.232 -37.217 2.091 248 238 226
-22.207 -37.240 2.091 242 233 216
-22.185 -37.266 2.090 241 234 216
-22.162 -37.291 2.090 243 235 222
-22.143 -37.318 2.090 250 241 232
-22.119 -37.342 2.090 207 199 188
-22.093 -37.365 2.090 249 235 222
-22.071 -37.391 2.090 249 237 223
-22.051 -37.418 2.090 247 235 221
-22.031 -37.445 2.091 251 234 226
-22.011 -37.473 2.091 244 234 222
-21.994 -37.502 2.090 241 233 220
-21.976 -37.531 2.090 245 235 223
-21.961 -37.561 2.090 251 238 222
-21.947 -37.592 2.090 248 236 224
-21.933 -37.622 2.090 255 240 219
-21.915 -37.652 2.090 228 223 204
-21.894 -37.679 2.091 244 238 226
-21.877 -37.709 2.091 247 234 225
-21.862 -37.740 2.091 246 236 226
-21.848 -37.771 2.091 248 238 228
-21.835 -37.803 2.091 250 240 230
-21.823 -37.835 2.092 250 240 228
-21.815 -37.868 2.091 238 228 216
-21.808 -37.902 2.091 249 239 227
-21.803 -37.935 2.091 251 239 227
-21.798 -37.969 2.091 248 238 228
-21.790 -38.002 2.091 184 176 157
-21.782 -38.036 2.091 251 242 227
-21.775 -38.069 2.091 251 239 227
-21.772 -38.103 2.091 255 243 224
-21.770 -38.138 2.091 255 242 226
-21.770 -38.172 2.091 252 240 228
-21.771 -38.206 2.091 255 243 227
-21.773 -38.240 2.091 252 240 224
-21.776 -38.274 2.091 254 243 225
-21.780 -38.308 2.091 255 244 226
-21.786 -38.341 2.090 254 245 228
-21.791 -38.375 2.090 248 240 221
-21.802 -38.408 2.090 235 227 214
-21.827 -38.438 2.088 193 184 179
-21.858 -38.466 2.087 196 189 183
-21.886 -38.493 2.085 192 183 174
-21.913 -38.520 2.084 186 177 168
-21.942 -38.545 2.082 176 168 157
-21.973 -38.568 2.081 143 135 124
-22.004 -38.591 2.079 239 233 219
-22.038 -38.610 2.077 107 98 99
-22.067 -38.631 2.076 125 119 119
-22.090 -38.653 2.075 184 180 177
-22.120 -38.671 2.074 81 77 78
-22.149 -38.688 2.072 159 151 149
-22.185 -38.701 2.071 192 182 173
-22.206 -38.720 2.070 204 196 185
-22.232 -38.736 2.069 204 197 189
-22.253 -38.754 2.068 211 196 189
-22.215 -38.806 2.072 194 192 179
-22.065 -38.934 2.085 232 225 217
-22.062 -38.974 2.087 51 82 113
-22.078 -39.002 2.087 49 83 120
-22.104 -39.023 2.086 72 107 139
-22.123 -39.049 2.086 110 115 137
-22.132 -39.083 2.087 239 223 197
-22.150 -39.111 2.087 172 169 152
-22.173 -39.135 2.087 149 138 136
-22.194 -39.159 2.087 196 187 182
-22.216 -39.183 2.087 175 167 164
-22.239 -39.207 2.088 184 168 155
-22.260 -39.233 2.088 152 145 137
-22.278 -39.262 2.088 44 69 89
-22.297 -39.291 2.089 74 105 136
-22.320 -39.316 2.089 65 92 122
-22.344 -39.340 2.090 78 103 134
-22.370 -39.361 2.090 94 114 147
-22.398 -39.379 2.090 102 124 147
-22.429 -39.394 2.090 124 129 158
-22.459 -39.410 2.089 226 224 212
-22.488 -39.425 2.089 155 163 174
-22.519 -39.439 2.089 155 168 174
-22.549 -39.453 2.089 199 209 211
-22.580 -39.466 2.089 176 184 186
-22.612 -39.476 2.089 191 197 195
-22.644 -39.484 2.088 187 200 208
-22.675 -39.496 2.088 189 193 196
-22.705 -39.511 2.088 190 167 136
-22.734 -39.528 2.089 176 159 133
-22.767 -39.533 2.089 174 174 166
-22.799 -39.542 2.089 192 188 179
-22.832 -39.547 2.088 189 182 174
-22.864 -39.556 2.088 186 186 174
-22.896 -39.565 2.089 175 167 156
-22.929 -39.571 2.089 187 183 172
-22.961 -39.575 2.088 184 181 174
-22.994 -39.580 2.089 168 161 153
-23.027 -39.586 2.089 186 187 173
-23.060 -39.589 2.089 196 188 177
-23.093 -39.593 2.089 203 190 181
-23.126 -39.599 2.089 183 185 171
-23.160 -39.604 2.089 164 153 151
-23.193 -39.607 2.090 190 183 167
-23.227 -39.608 2.090 194 183 165
-23.261 -39.610 2.090 199 186 170
-23.294 -39.609 2.090 197 191 179
-23.328 -39.605 2.090 197 193 184
-23.361 -39.601 2.090 193 189 180
-23.395 -39.596 2.090 196 192 183
-23.427 -39.586 2.090 204 189 166
-23.461 -39.581 2.090 198 172 157
-23.494 -39.574 2.090 212 197 178
-23.527 -39.567 2.090 233 218 199
-23.560 -39.560 2.090 214 198 185
-23.591 -39.547 2.090 222 206 191
-23.623 -39.536 2.090 222 207 188
-23.656 -39.527 2.090 211 196 177
-23.686 -39.511 2.090 212 197 178
-23.717 -39.499 2.090 192 171 154
-23.748 -39.484 2.090 204 184 177
-23.778 -39.469 2.090 191 168 154
-23.810 -39.456 2.090 166 138 127
-23.841 -39.443 2.091 169 141 129
-23.873 -39.430 2.091 161 129 118
-23.903 -39.414 2.091 137 103 94
-23.931 -39.394 2.091 143 111 98
-23.959 -39.375 2.091 132 112 87
-23.991 -39.361 2.091 167 152 131
-24.019 -39.342 2.092 153 132 111
-24.046 -39.320 2.092 154 125 111
-24.071 -39.296 2.091 151 118 109
-24.095 -39.272 2.091 148 111 102
-24.120 -39.249 2.091 138 100 91
-24.142 -39.223 2.091 130 103 84
-24.166 -39.198 2.091 122 103 96
-24.203 -39.186 2.092 229 214 181
-24.226 -39.160 2.092 183 178 175
-24.248 -39.134 2.092 173 164 157
-24.271 -39.108 2.092 187 189 175
-24.293 -39.081 2.092 192 178 167
-24.313 -39.052 2.092 184 187 170
-24.333 -39.024 2.093 212 209 194
-24.352 -38.995 2.093 194 181 172
-24.371 -38.966 2.093 186 185 180
-24.387 -38.936 2.092 173 174 168
-24.404 -38.905 2.093 186 182 170
-24.424 -38.876 2.093 221 215 201
-24.443 -38.847 2.093 191 185 171
-24.459 -38.816 2.093 175 169 155
-24.474 -38.785 2.093 183 183 157
-24.491 -38.754 2.094 169 158 154
-24.505 -38.722 2.094 169 183 170
-24.519 -38.689 2.094 158 132 117
-24.532 -38.656 2.094 135 128 102
-24.550 -38.625 2.095 127 121 99
-24.563 -38.592 2.095 88 83 64
-24.574 -38.558 2.095 87 83 71
-24.587 -38.524 2.095 170 163 155
-24.601 -38.490 2.096 183 174 165
-24.610 -38.455 2.096 128 118 109
-24.618 -38.420 2.096 118 108 99
-24.632 -38.385 2.097 191 182 151
-24.636 -38.349 2.097 106 94 78
-24.638 -38.313 2.097 116 106 96
-24.641 -38.276 2.097 179 172 153
-24.648 -38.240 2.098 131 131 107
-24.658 -38.203 2.098 168 170 146
-24.658 -38.166 2.098 154 154 128
-24.662 -38.129 2.099 126 126 98
-24.659 -38.092 2.099 125 119 95
-24.535 -37.896 2.093 159 155 146
-24.628 -37.834 2.100 164 155 146
-24.694 -37.775 2.105 162 152 140
-24.782 -37.704 2.112 164 156 145
-25.278 -37.482 2.147 161 157 146
-37.053 -32.881 2.976 121 122 114
-37.022 -32.498 2.983 156 159 152
-27.294 -36.407 2.296 123 116 100
-25.001 -37.369 2.133 140 127 108
-24.983 -37.322 2.134 85 82 73
-25.008 -37.252 2.137 171 167 155
-25.007 -37.194 2.139 163 156 138
-25.210 -37.011 2.157 134 129 110
-26.355 -36.217 2.248 71 72 56
-26.478 -36.023 2.262 37 38 30
-26.502 -35.886 2.268 36 38 27
-26.508 -35.757 2.273 22 25 14
-26.498 -35.635 2.278 22 27 21
-26.483 -35.513 2.282 19 25 23
-26.438 -35.412 2.284 23 28 24
-26.374 -35.326 2.284 28 33 27
-26.313 -35.237 2.285 19 21 18
-26.260 -35.140 2.287 14 16 15
-26.201 -35.045 2.289 15 17 16
-26.141 -34.951 2.291 9 11 10
-26.079 -34.856 2.293 14 16 13
-26.019 -34.755 2.295 25 26 21
-25.959 -34.653 2.298 45 47 33
-25.889 -34.560 2.300 36 40 17
-25.803 -34.486 2.301 68 72 49
-25.722 -34.405 2.302 64 63 43
-25.629 -34.341 2.303 45 43 22
-25.528 -34.289 2.302 52 51 31
-25.429 -34.234 2.302 48 46 31
-25.333 -34.173 2.302 33 38 18
-25.240 -34.107 2.303 51 57 31
-25.142 -34.049 2.304 76 79 50
-25.034 -34.010 2.303 83 82 52
-24.915 -34.002 2.301 83 85 61
-24.797 -33.994 2.298 59 63 38
-24.689 -33.967 2.297 74 77 58
-24.575 -33.955 2.296 16 19 8
-24.470 -33.921 2.296 28 30 27
-24.367 -33.876 2.297 25 27 22
-24.263 -33.834 2.298 27 29 18
-24.160 -33.785 2.299 37 39 25
-24.056 -33.732 2.301 42 44 31
-23.953 -33.670 2.304 38 40 27
-23.848 -33.597 2.308 34 36 23
-23.739 -33.544 2.310 26 29 18
-23.627 -33.498 2.312 58 61 54
-23.513 -33.451 2.315 38 41 32
-23.397 -33.399 2.318 20 23 12
-23.280 -33.336 2.322 46 50 35
-23.160 -31.551 2.329 66 65 63
-22.995 -31.538 2.329 76 76 74
-22.830 -31.526 2.330 70 72 71
-23.051 -36.762 2.073 43 46 51
-23.022 -36.848 2.069 102 109 117
-22.989 -36.856 2.069 12 15 22
-22.954 -36.857 2.069 20 15 19
-22.919 -36.856 2.069 18 17 13
-22.885 -36.861 2.069 148 150 149
-22.851 -36.868 2.069 12 11 9
-22.817 -36.872 2.069 45 42 37
-22.784 -36.885 2.069 15 15 13
-22.753 -36.900 2.069 14 17 22
-22.722 -36.914 2.069 15 18 23
-22.693 -36.935 2.068 11 14 19
-22.664 -36.956 2.068 79 83 86
-22.639 -36.984 2.067 6 10 11
-22.612 -37.004 2.066 24 28 29
-22.585 -37.025 2.066 29 31 30
-22.557 -37.043 2.066 28 28 26
-22.530 -37.063 2.066 59 56 49
-22.504 -37.082 2.065 152 152 142
-22.477 -37.101 2.065 195 195 183
-22.438 -37.100 2.066 174 170 159
-22.391 -37.090 2.068 180 171 162
-22.360 -37.105 2.068 99 92 84
-22.334 -37.127 2.068 104 97 89
-22.310 -37.152 2.068 107 100 92
-22.285 -37.175 2.068 141 135 123
-22.260 -37.198 2.068 139 132 122
-22.234 -37.219 2.068 148 141 133
-22.210 -37.242 2.068 165 159 147
-22.187 -37.268 2.068 172 166 152
-22.165 -37.293 2.067 187 179 168
-22.142 -37.318 2.067 198 189 180
-22.118 -37.341 2.068 205 196 181
-22.093 -37.365 2.068 207 200 182
-22.072 -37.392 2.068 227 224 207
-22.053 -37.420 2.068 234 232 217
-22.032 -37.446 2.068 238 232 220
-22.011 -37.473 2.068 238 228 216
-21.993 -37.502 2.068 242 232 220
-21.975 -37.530 2.068 241 231 219
-21.959 -37.560 2.068 239 229 217
-21.943 -37.590 2.068 249 239 230
-21.927 -37.619 2.068 236 227 212
-21.908 -37.648 2.068 252 244 225
-21.888 -37.677 2.068 255 242 226
-21.871 -37.706 2.069 253 237 221
-21.857 -37.738 2.069 249 236 219
-21.842 -37.769 2.069 252 239 220
-21.823 -37.799 2.069 254 242 220
-21.812 -37.831 2.069 251 238 221
-21.808 -37.866 2.069 244 228 212
-21.801 -37.900 2.069 253 237 221
-21.796 -37.934 2.069 252 235 219
-21.791 -37.968 2.069 255 246 241
-21.781 -38.001 2.069 187 174 155
-21.774 -38.035 2.069 246 235 217
-21.771 -38.069 2.069 248 239 224
-21.769 -38.103 2.069 253 242 224
-21.767 -38.137 2.069 254 241 225
-21.767 -38.172 2.068 253 239 226
-21.768 -38.206 2.068 254 241 224
-21.770 -38.240 2.068 254 241 222
-21.773 -38.274 2.068 255 243 226
-21.777 -38.308 2.068 254 243 225
-21.783 -38.342 2.068 255 243 226
-21.788 -38.375 2.068 254 240 227
-21.798 -38.408 2.067 213 201 189
-21.821 -38.439 2.066 193 183 173
-21.849 -38.468 2.065 194 187 177
-21.877 -38.495 2.064 191 182 173
-21.902 -38.522 2.063 190 181 172
-21.929 -38.548 2.062 192 184 173
-21.957 -38.573 2.061 182 174 161
-21.989 -38.595 2.060 179 172 153
-22.026 -38.615 2.059 185 178 172
-22.056 -38.635 2.058 53 48 42
-22.085 -38.655 2.057 140 136 127
-22.119 -38.671 2.055 49 45 42
-22.147 -38.689 2.054 193 186 180
-22.173 -38.707 2.054 95 85 76
-22.204 -38.721 2.053 151 142 135
-22.229 -38.737 2.052 185 184 182
-22.248 -38.757 2.051 192 179 173
-22.191 -38.820 2.055 193 191 178
-22.056 -38.939 2.064 233 221 207
-22.057 -38.977 2.065 50 97 143
-22.077 -39.003 2.065 31 89 153
-22.099 -39.027 2.065 30 95 153
-22.117 -39.054 2.065 51 87 139
-22.123 -39.091 2.066 231 220 202
-22.144 -39.116 2.066 179 180 162
-22.167 -39.140 2.066 154 143 141
-22.190 -39.163 2.066 188 173 170
-22.212 -39.188 2.066 172 174 161
-22.234 -39.212 2.066 186 183 164
-22.256 -39.237 2.066 148 150 147
-22.275 -39.265 2.067 41 67 104
-22.295 -39.294 2.067 40 87 139
-22.318 -39.318 2.067 39 89 140
-22.342 -39.343 2.067 44 94 145
-22.368 -39.364 2.068 44 91 143
-22.397 -39.382 2.067 35 91 138
-22.428 -39.396 2.067 44 83 148
-22.457 -39.412 2.067 202 238 255
-22.486 -39.429 2.067 40 92 150
-22.517 -39.443 2.067 39 85 144
-22.547 -39.456 2.067 36 77 139
-22.578 -39.470 2.067 43 84 146
-22.610 -39.481 2.067 45 86 148
-22.642 -39.490 2.066 41 96 152
-22.675 -39.496 2.066 50 87 129
-22.702 -39.518 2.067 125 118 108
-22.732 -39.535 2.067 171 154 134
-22.765 -39.540 2.067 192 192 184
-22.797 -39.550 2.067 205 201 192
-22.830 -39.555 2.067 203 194 187
-22.862 -39.565 2.067 196 198 185
-22.894 -39.573 2.067 186 178 167
-22.927 -39.579 2.067 198 194 185
-22.960 -39.584 2.067 194 189 183
-22.993 -39.588 2.067 177 173 162
-23.026 -39.595 2.067 192 193 179
-23.059 -39.600 2.067 197 189 178
-23.093 -39.604 2.067 200 187 178
-23.126 -39.610 2.067 176 180 165
-23.160 -39.614 2.067 154 150 141
-23.193 -39.619 2.068 151 161 153
-23.228 -39.624 2.068 46 68 89
-23.262 -39.626 2.068 50 81 112
-23.296 -39.623 2.068 67 84 112
-23.329 -39.618 2.068 73 84 114
-23.363 -39.612 2.068 87 98 128
-23.397 -39.608 2.068 101 112 142
-23.430 -39.600 2.068 107 126 156
-23.463 -39.594 2.068 142 147 140
-23.497 -39.589 2.068 195 196 198
-23.532 -39.585 2.069 194 205 211
-23.565 -39.576 2.069 190 196 192
-23.597 -39.563 2.068 186 190 189
-23.629 -39.552 2.068 188 193 189
-23.662 -39.544 2.069 191 196 190
-23.694 -39.529 2.069 189 200 194
-23.726 -39.517 2.069 186 180 166
-23.758 -39.506 2.069 205 198 188
-23.791 -39.494 2.069 185 191 179
-23.822 -39.480 2.069 186 188 177
-23.854 -39.466 2.069 183 184 168
-23.885 -39.451 2.069 192 189 170
-23.915 -39.434 2.069 184 179 159
-23.943 -39.413 2.069 188 182 170
-23.971 -39.393 2.069 193 184 155
-24.000 -39.373 2.069 150 138 112
-24.028 -39.353 2.069 189 183 169
-24.054 -39.330 2.069 187 189 168
-24.079 -39.306 2.069 186 188 166
-24.104 -39.282 2.069 199 197 172
-24.129 -39.258 2.069 197 192 163
-24.151 -39.231 2.069 206 189 169
-24.175 -39.207 2.069 197 179 175
-24.206 -39.188 2.069 224 208 172
-24.228 -39.162 2.069 183 177 179
-24.251 -39.136 2.069 183 174 167
-24.275 -39.110 2.069 174 178 163
-24.296 -39.083 2.070 175 158 148
-24.316 -39.054 2.069 184 189 169
-24.336 -39.026 2.070 183 180 163
-24.355 -38.997 2.070 187 177 168
-24.374 -38.968 2.070 183 180 175
-24.391 -38.938 2.070 177 178 170
-24.409 -38.908 2.070 175 169 157
-24.428 -38.879 2.070 188 182 168
-24.449 -38.850 2.070 186 180 166
-24.466 -38.819 2.070 158 152 138
-24.482 -38.788 2.070 197 199 177
-24.498 -38.757 2.071 171 159 159
-24.514 -38.725 2.071 167 179 165
-24.530 -38.693 2.071 224 202 181
-24.547 -38.661 2.071 202 183 168
-24.567 -38.630 2.072 206 187 173
-24.581 -38.596 2.072 198 178 169
-24.593 -38.562 2.072 206 188 178
-24.606 -38.528 2.072 191 173 159
-24.619 -38.493 2.073 202 183 168
-24.628 -38.458 2.073 193 174 157
-24.637 -38.422 2.073 184 163 144
-24.646 -38.387 2.073 180 148 127
-24.651 -38.350 2.073 113 76 68
-24.655 -38.314 2.074 141 103 90
-24.658 -38.277 2.074 143 104 89
-24.662 -38.240 2.074 155 112 105
-24.669 -38.203 2.074 162 118 109
-24.671 -38.166 2.074 180 133 123
-24.675 -38.128 2.075 168 120 108
-24.679 -38.090 2.075 151 120 100
-24.141 -38.045 2.049 153 153 145
-24.490 -37.941 2.067 156 154 142
-24.558 -37.890 2.071 161 155 143
-24.616 -37.837 2.074 163 153 143
-24.668 -37.783 2.077 162 152 140
-24.741 -37.717 2.082 161 153 140
-24.957 -37.597 2.094 155 153 141
-37.136 -32.849 2.736 121 122 114
-37.120 -32.457 2.742 155 158 149
-27.448 -36.339 2.230 111 105 91
-24.982 -37.378 2.099 95 82 65
-24.970 -37.329 2.100 103 99 90
-25.000 -37.256 2.103 163 159 147
-25.007 -37.193 2.104 160 151 134
-25.217 -37.007 2.118 138 131 113
-26.374 -36.205 2.187 41 39 26
-26.483 -36.019 2.196 18 19 11
-26.504 -35.885 2.201 57 59 48
-26.511 -35.754 2.205 31 35 21
-26.492 -35.640 2.208 25 31 21
-26.465 -35.527 2.210 53 61 50
-26.426 -35.423 2.212 39 45 31
-26.374 -35.327 2.213 69 75 61
-26.314 -35.237 2.214 34 36 31
-26.250 -35.150 2.215 23 25 22
-26.186 -35.061 2.216 15 17 12
-26.124 -34.970 2.217 41 43 38
-26.061 -34.876 2.218 26 28 23
-25.999 -34.780 2.220 38 39 33
-25.941 -34.677 2.222 47 49 38
-25.877 -34.577 2.224 32 34 20
-25.793 -34.501 2.225 75 77 64
-25.709 -34.425 2.225 77 73 61
-25.625 -34.347 2.226 56 53 34
-25.531 -34.284 2.227 74 74 48
-25.431 -34.230 2.226 53 55 31
-25.333 -34.174 2.227 49 55 29
-25.240 -34.106 2.227 81 85 58
-25.143 -34.046 2.228 56 59 32
-25.040 -33.998 2.228 63 62 34
-24.932 -33.961 2.228 76 76 48
-24.820 -33.934 2.227 77 76 46
-24.704 -33.923 2.225 55 54 26
-24.586 -33.922 2.223 49 46 27
-24.474 -33.907 2.222 33 35 22
-24.372 -33.860 2.223 62 64 51
-24.271 -33.804 2.225 43 45 31
-24.169 -33.747 2.226 54 56 42
-24.064 -33.695 2.228 53 57 43
-23.958 -33.640 2.229 38 41 30
-23.851 -33.579 2.231 44 47 38
-23.741 -33.527 2.233 24 27 20
-23.630 -33.460 2.236 62 66 51
-23.517 -33.397 2.239 83 88 66
-23.401 -33.334 2.241 51 57 31
-23.282 -33.254 2.245 24 30 2
-23.160 -31.523 2.220 71 72 67
-22.995 -31.527 2.220 78 78 78
-22.829 -31.516 2.220 62 66 67
-23.053 -36.798 2.047 18 23 26
-23.022 -36.846 2.046 116 124 126
-22.988 -36.846 2.046 23 25 24
-22.953 -36.848 2.046 247 240 234
-22.917 -36.845 2.046 242 232 220
-22.883 -36.852 2.046 243 237 225
-22.849 -36.858 2.046 240 236 225
-22.814 -36.861 2.047 179 179 169
-22.782 -36.876 2.046 186 186 178
-22.751 -36.893 2.046 141 142 136
-22.720 -36.910 2.046 57 57 55
-22.692 -36.934 2.045 10 10 10
-22.664 -36.955 2.045 51 50 55
-22.636 -36.977 2.045 15 18 23
-22.610 -36.999 2.044 0 1 5
-22.583 -37.021 2.044 7 12 16
-22.557 -37.043 2.044 6 11 15
-22.529 -37.060 2.044 72 73 78
-22.503 -37.082 2.044 24 24 34
-22.475 -37.097 2.044 12 15 24
-22.438 -37.100 2.044 28 23 29
-22.395 -37.095 2.045 50 45 42
-22.362 -37.108 2.045 166 161 157
-22.336 -37.129 2.045 124 119 115
-22.312 -37.154 2.045 66 61 57
-22.287 -37.177 2.045 50 54 55
-22.263 -37.201 2.045 53 60 68
-22.238 -37.223 2.045 73 80 90
-22.215 -37.248 2.045 37 44 50
-22.192 -37.272 2.045 73 78 81
-22.168 -37.296 2.045 20 23 28
-22.144 -37.320 2.045 18 22 23
-22.120 -37.343 2.045 8 11 4
-22.097 -37.368 2.045 158 158 150
-22.081 -37.398 2.045 52 54 53
-22.063 -37.427 2.045 30 35 38
-22.043 -37.454 2.045 31 31 33
-22.021 -37.479 2.045 94 94 96
-22.005 -37.509 2.045 21 22 24
-21.984 -37.535 2.045 61 69 71
-21.965 -37.563 2.045 57 68 70
-21.947 -37.592 2.045 86 95 102
-21.927 -37.620 2.045 87 101 112
-21.906 -37.647 2.045 87 89 86
-21.888 -37.676 2.046 131 126 122
-21.871 -37.706 2.046 98 103 109
-21.856 -37.737 2.046 68 75 81
-21.842 -37.769 2.046 62 70 73
-21.823 -37.799 2.046 62 70 72
-21.811 -37.831 2.046 58 68 69
-21.808 -37.866 2.046 63 65 62
-21.800 -37.900 2.046 76 75 70
-21.790 -37.933 2.046 71 73 72
-21.789 -37.968 2.046 86 81 87
-21.779 -38.001 2.046 106 97 82
-21.772 -38.034 2.046 152 139 122
-21.771 -38.069 2.046 133 124 109
-21.770 -38.103 2.046 132 126 110
-21.768 -38.137 2.046 140 131 114
-21.769 -38.172 2.046 151 139 123
-21.769 -38.206 2.046 162 155 145
-21.773 -38.240 2.045 181 174 164
-21.776 -38.274 2.045 186 183 176
-21.781 -38.308 2.045 194 195 190
-21.787 -38.341 2.045 213 210 201
-21.792 -38.375 2.045 228 220 217
-21.800 -38.408 2.045 168 159 152
-21.822 -38.438 2.044 194 184 172
-21.848 -38.468 2.044 194 187 177
-21.875 -38.496 2.043 186 179 169
-21.898 -38.523 2.042 194 185 176
-21.922 -38.550 2.042 194 186 175
-21.946 -38.576 2.041 186 178 165
-21.975 -38.600 2.041 183 175 152
-22.005 -38.622 2.040 194 186 175
-22.035 -38.643 2.039 189 183 171
-22.071 -38.660 2.038 187 181 167
-22.109 -38.675 2.037 185 181 170
-22.137 -38.693 2.037 241 233 222
-22.170 -38.708 2.036 68 58 48
-22.207 -38.720 2.035 232 224 221
-22.238 -38.733 2.034 40 44 47
-22.262 -38.749 2.034 47 41 29
-22.161 -38.839 2.038 213 210 201
-22.051 -38.942 2.043 243 218 196
-22.055 -38.978 2.043 41 38 33
-22.070 -39.007 2.044 26 15 32
-22.094 -39.030 2.043 24 26 25
-22.112 -39.058 2.044 39 27 29
-22.117 -39.096 2.044 238 216 192
-22.139 -39.121 2.044 169 170 154
-22.162 -39.145 2.044 163 152 150
-22.185 -39.168 2.044 175 160 155
-22.207 -39.192 2.044 182 175 167
-22.230 -39.217 2.044 179 171 160
-22.254 -39.240 2.044 153 147 135
-22.277 -39.263 2.044 173 172 167
-22.297 -39.291 2.045 35 28 22
-22.319 -39.317 2.045 65 54 48
-22.344 -39.340 2.045 62 51 45
-22.370 -39.361 2.045 66 55 49
-22.399 -39.378 2.045 59 52 42
-22.431 -39.391 2.045 52 36 46
-22.457 -39.412 2.045 79 67 45
-22.485 -39.431 2.045 48 46 60
-22.514 -39.447 2.045 43 46 53
-22.547 -39.457 2.045 44 47 54
-22.577 -39.471 2.045 49 56 66
-22.609 -39.482 2.044 54 64 74
-22.641 -39.491 2.044 50 67 85
-22.674 -39.500 2.044 58 65 84
-22.700 -39.523 2.045 162 140 126
-22.731 -39.538 2.045 136 114 93
-22.764 -39.544 2.045 182 179 172
-22.796 -39.555 2.045 169 165 156
-22.828 -39.562 2.045 161 152 145
-22.860 -39.573 2.045 182 184 171
-22.893 -39.580 2.045 181 173 162
-22.926 -39.585 2.045 183 179 170
-22.959 -39.591 2.045 177 172 166
-22.992 -39.596 2.045 163 159 148
-23.025 -39.602 2.045 177 178 164
-23.059 -39.607 2.045 195 187 176
-23.092 -39.613 2.045 200 187 178
-23.126 -39.618 2.045 178 182 167
-23.160 -39.623 2.045 177 170 151
-23.194 -39.628 2.045 174 182 171
-23.228 -39.629 2.046 64 89 120
-23.262 -39.628 2.046 56 94 143
-23.296 -39.624 2.046 53 99 148
-23.330 -39.619 2.045 48 96 145
-23.363 -39.614 2.045 42 90 139
-23.397 -39.610 2.046 44 92 141
-23.430 -39.602 2.045 45 84 151
-23.464 -39.597 2.046 94 116 129
-23.498 -39.593 2.046 54 77 121
-23.533 -39.588 2.046 40 89 158
-23.566 -39.580 2.046 34 86 134
-23.598 -39.566 2.046 38 88 137
-23.630 -39.555 2.046 37 87 136
-23.663 -39.546 2.046 37 87 136
-23.695 -39.532 2.046 41 92 139
-23.727 -39.519 2.046 60 84 118
-23.759 -39.508 2.046 62 86 120
-23.790 -39.493 2.046 47 95 133
-23.821 -39.478 2.046 48 90 150
-23.852 -39.462 2.046 48 87 144
-23.883 -39.447 2.046 48 85 140
-23.913 -39.431 2.046 45 82 135
-23.941 -39.410 2.046 45 88 143
-23.969 -39.390 2.046 49 79 107
-23.999 -39.372 2.046 57 72 101
-24.029 -39.354 2.046 48 78 128
-24.056 -39.333 2.046 44 77 131
-24.082 -39.309 2.046 46 78 129
-24.107 -39.286 2.046 43 74 121
-24.133 -39.262 2.046 44 75 119
-24.155 -39.236 2.046 39 72 105
-24.179 -39.211 2.046 48 71 103
-24.209 -39.191 2.046 222 218 193
-24.230 -39.164 2.046 183 172 168
-24.253 -39.138 2.046 174 161 152
-24.278 -39.113 2.046 179 183 168
-24.300 -39.086 2.046 170 153 143
-24.320 -39.057 2.046 186 191 171
-24.340 -39.029 2.046 192 191 173
-24.359 -39.000 2.046 190 181 172
-24.379 -38.971 2.047 187 184 175
-24.398 -38.942 2.047 179 179 169
-24.416 -38.912 2.047 191 185 171
-24.435 -38.882 2.047 177 171 157
-24.456 -38.853 2.047 186 180 166
-24.475 -38.823 2.047 157 151 137
-24.491 -38.791 2.047 179 180 164
-24.508 -38.760 2.047 183 169 168
-24.524 -38.728 2.047 176 185 164
-24.542 -38.697 2.048 230 212 190
-24.559 -38.665 2.048 191 184 176
-24.581 -38.634 2.048 189 184 180
-24.598 -38.600 2.049 180 177 168
-24.611 -38.566 2.049 177 178 164
-24.623 -38.531 2.049 173 170 163
-24.636 -38.496 2.049 176 171 165
-24.647 -38.461 2.049 182 178 169
-24.657 -38.425 2.049 178 171 163
-24.666 -38.388 2.050 181 181 157
-24.671 -38.352 2.050 192 197 175
-24.676 -38.315 2.050 186 197 167
-24.679 -38.277 2.050 176 181 158
-24.684 -38.240 2.050 198 201 184
-24.691 -38.202 2.050 181 184 163
-24.690 -38.165 2.050 189 191 170
-24.693 -38.127 2.050 186 185 164
-24.703 -38.088 2.051 198 181 161
-24.398 -38.087 2.041 187 177 165
-24.391 -38.026 2.041 157 153 141
-24.479 -37.978 2.044 163 157 145
-24.500 -37.939 2.045 162 156 144
-24.566 -37.888 2.047 161 153 142
-24.609 -37.839 2.049 160 152 139
-24.645 -37.789 2.051 141 132 117
-24.708 -37.729 2.053 162 154 141
-24.827 -37.643 2.058 173 170 161
-37.224 -32.815 2.494 117 118 112
-37.221 -32.416 2.498 151 154 145
-27.626 -36.260 2.160 123 120 105
-24.964 -37.387 2.065 95 83 67
-24.951 -37.338 2.066 127 120 110
-24.983 -37.265 2.068 157 151 137
-24.995 -37.200 2.069 163 152 134
-25.137 -37.055 2.075 168 160 141
-26.320 -36.239 2.122 45 43 28
-26.462 -36.034 2.130 42 44 33
-26.504 -35.885 2.134 57 59 48
-26.513 -35.753 2.137 35 39 25
-26.504 -35.630 2.139 25 32 16
-26.495 -35.503 2.141 41 51 27
-26.459 -35.394 2.143 52 60 36
-26.406 -35.298 2.143 42 50 26
-26.335 -35.217 2.144 39 43 29
-26.257 -35.143 2.143 42 45 34
-26.187 -35.061 2.144 36 39 28
-26.116 -34.978 2.144 21 24 15
-26.048 -34.892 2.145 23 26 19
-25.986 -34.796 2.146 47 48 40
-25.920 -34.703 2.147 35 36 28
-25.850 -34.612 2.148 21 22 17
-25.773 -34.530 2.149 17 17 17
-25.697 -34.443 2.150 52 49 40
-25.624 -34.349 2.151 60 59 39
-25.536 -34.275 2.151 63 66 37
-25.440 -34.214 2.151 69 75 41
-25.341 -34.158 2.152 69 74 44
-25.241 -34.104 2.152 47 51 24
-25.141 -34.051 2.152 60 63 36
-25.037 -34.004 2.152 74 74 48
-24.934 -33.957 2.152 78 77 47
-24.826 -33.919 2.152 62 59 26
-24.716 -33.890 2.151 72 67 35
-24.603 -33.872 2.151 89 81 58
-24.491 -33.852 2.150 55 53 32
-24.384 -33.815 2.150 48 47 29
-24.281 -33.761 2.151 68 69 55
-24.173 -33.725 2.151 56 57 49
-24.066 -33.683 2.152 29 32 25
-23.959 -33.633 2.153 16 21 14
-23.851 -33.576 2.154 17 22 16
-23.742 -33.519 2.156 14 19 15
-23.633 -33.432 2.158 13 16 7
-23.521 -33.345 2.161 32 36 22
-23.403 -33.275 2.163 64 68 54
-23.282 -33.242 2.164 43 47 32
-23.160 -31.506 2.110 79 81 78
-22.994 -31.517 2.110 76 76 76
-22.829 -31.509 2.110 79 78 74
-23.055 -36.823 2.023 208 204 193
-23.022 -36.847 2.023 198 195 186
-22.987 -36.843 2.023 179 172 164
-22.952 -36.841 2.023 249 236 227
-22.915 -36.834 2.023 246 239 221
-22.881 -36.837 2.023 250 237 218
-22.846 -36.844 2.023 246 239 223
-22.811 -36.849 2.023 181 181 169
-22.779 -36.864 2.023 186 184 172
-22.747 -36.880 2.023 183 176 166
-22.716 -36.897 2.023 192 185 175
-22.687 -36.920 2.023 183 176 168
-22.659 -36.943 2.023 180 173 167
-22.631 -36.964 2.023 183 179 170
-22.604 -36.987 2.022 182 179 170
-22.578 -37.010 2.022 108 105 100
-22.552 -37.034 2.022 12 13 8
-22.526 -37.054 2.022 98 97 93
-22.499 -37.074 2.022 21 21 23
-22.471 -37.091 2.022 33 32 38
-22.430 -37.088 2.022 212 208 205
-22.390 -37.089 2.023 234 225 216
-22.357 -37.101 2.023 224 215 206
-22.331 -37.123 2.023 178 169 160
-22.307 -37.147 2.023 207 198 189
-22.281 -37.170 2.023 168 165 158
-22.255 -37.191 2.023 155 154 152
-22.232 -37.217 2.023 221 219 220
-22.211 -37.244 2.022 70 69 65
-22.189 -37.269 2.022 132 133 127
-22.165 -37.293 2.022 36 35 33
-22.142 -37.318 2.022 9 5 6
-22.113 -37.337 2.023 32 29 24
-22.092 -37.364 2.023 201 197 188
-22.080 -37.398 2.022 30 29 27
-22.062 -37.426 2.022 92 91 97
-22.040 -37.451 2.022 38 34 35
-22.019 -37.478 2.022 103 103 101
-22.005 -37.509 2.022 31 35 36
-21.986 -37.537 2.022 100 108 111
-21.966 -37.564 2.022 16 25 32
-21.938 -37.587 2.023 145 153 156
-21.924 -37.618 2.023 80 103 119
-21.894 -37.641 2.023 139 139 139
-21.878 -37.672 2.023 170 169 165
-21.862 -37.703 2.023 99 118 135
-21.845 -37.733 2.023 95 116 133
-21.830 -37.764 2.023 95 117 131
-21.817 -37.797 2.023 92 114 128
-21.808 -37.830 2.023 103 131 145
-21.801 -37.864 2.023 98 118 127
-21.793 -37.898 2.023 105 120 127
-21.791 -37.933 2.023 98 117 131
-21.783 -37.966 2.023 98 115 131
-21.773 -38.000 2.023 200 205 198
-21.769 -38.034 2.023 189 182 166
-21.771 -38.069 2.023 181 172 163
-21.768 -38.103 2.023 44 40 28
-21.766 -38.137 2.023 161 154 138
-21.768 -38.172 2.023 163 159 147
-21.771 -38.206 2.023 99 108 115
-21.775 -38.240 2.023 100 118 130
-21.780 -38.274 2.023 88 114 129
-21.786 -38.308 2.023 93 124 144
-21.792 -38.341 2.022 90 113 127
-21.798 -38.374 2.022 109 123 132
-21.800 -38.408 2.022 152 156 157
-21.823 -38.438 2.022 145 138 130
-21.852 -38.467 2.022 77 72 66
-21.876 -38.495 2.021 94 87 79
-21.897 -38.524 2.021 190 181 172
-21.919 -38.551 2.021 189 181 170
-21.942 -38.577 2.021 184 176 163
-21.968 -38.601 2.020 166 158 135
-21.997 -38.624 2.020 191 181 172
-22.025 -38.646 2.020 189 180 171
-22.058 -38.665 2.019 186 180 168
-22.092 -38.682 2.019 191 184 176
-22.129 -38.697 2.018 202 192 182
-22.159 -38.713 2.018 182 172 160
-22.198 -38.724 2.018 188 184 175
-22.231 -38.736 2.017 76 77 79
-22.255 -38.752 2.017 109 103 81
-22.157 -38.841 2.019 205 200 194
-22.047 -38.945 2.022 246 216 192
-22.052 -38.980 2.022 78 79 61
-22.067 -39.009 2.022 34 23 37
-22.091 -39.033 2.022 42 43 25
-22.109 -39.060 2.022 52 45 35
-22.114 -39.099 2.022 237 219 197
-22.135 -39.123 2.022 160 161 145
-22.157 -39.149 2.022 214 203 201
-22.181 -39.171 2.022 218 203 196
-22.204 -39.195 2.022 170 162 151
-22.227 -39.219 2.022 192 185 177
-22.250 -39.243 2.022 165 165 155
-22.273 -39.267 2.022 183 175 152
-22.297 -39.291 2.022 51 43 30
-22.323 -39.312 2.022 81 74 66
-22.349 -39.333 2.022 64 60 51
-22.375 -39.353 2.022 55 55 45
-22.404 -39.372 2.022 62 63 45
-22.431 -39.391 2.022 67 58 59
-22.459 -39.409 2.022 168 159 126
-22.485 -39.431 2.022 69 55 55
-22.516 -39.444 2.022 88 69 63
-22.546 -39.459 2.022 94 70 66
-22.577 -39.472 2.022 96 73 67
-22.608 -39.483 2.022 97 72 65
-22.640 -39.493 2.022 89 72 54
-22.672 -39.503 2.022 95 78 71
-22.700 -39.525 2.022 148 120 98
-22.730 -39.539 2.022 125 108 90
-22.763 -39.548 2.022 178 179 173
-22.794 -39.560 2.022 180 176 167
-22.827 -39.568 2.022 174 165 158
-22.859 -39.577 2.022 183 185 172
-22.892 -39.584 2.022 186 178 167
-22.925 -39.590 2.022 193 189 180
-22.959 -39.595 2.022 176 171 165
-22.992 -39.600 2.022 163 159 148
-23.025 -39.607 2.022 183 184 170
-23.058 -39.612 2.023 192 184 173
-23.092 -39.617 2.023 186 173 164
-23.126 -39.624 2.023 176 180 165
-23.160 -39.630 2.023 189 178 174
-23.194 -39.634 2.023 186 183 166
-23.228 -39.630 2.023 102 102 94
-23.262 -39.631 2.023 63 58 65
-23.296 -39.628 2.023 69 61 59
-23.330 -39.622 2.023 67 60 54
-23.364 -39.617 2.023 59 52 46
-23.398 -39.614 2.023 62 55 49
-23.432 -39.608 2.023 55 54 62
-23.465 -39.599 2.023 39 33 35
-23.499 -39.594 2.023 41 47 63
-23.533 -39.588 2.023 38 57 89
-23.566 -39.580 2.023 47 69 92
-23.598 -39.567 2.023 50 72 95
-23.631 -39.557 2.023 60 82 106
-23.664 -39.547 2.023 61 82 109
-23.695 -39.533 2.023 61 82 109
-23.727 -39.520 2.023 75 83 104
-23.760 -39.509 2.023 70 85 116
-23.790 -39.492 2.023 68 92 120
-23.820 -39.477 2.023 51 93 133
-23.851 -39.461 2.023 49 97 137
-23.882 -39.446 2.023 39 86 128
-23.913 -39.430 2.023 38 85 131
-23.941 -39.410 2.023 58 95 148
-23.970 -39.391 2.023 52 76 110
-24.000 -39.373 2.023 62 78 111
-24.030 -39.355 2.023 60 83 125
-24.059 -39.336 2.023 40 79 122
-24.085 -39.313 2.023 40 83 126
-24.111 -39.289 2.023 39 84 126
-24.135 -39.265 2.023 40 84 129
-24.157 -39.238 2.023 48 86 125
-24.181 -39.213 2.023 64 87 121
-24.211 -39.193 2.023 232 228 203
-24.233 -39.166 2.023 187 177 175
-24.256 -39.140 2.023 172 162 152
-24.280 -39.114 2.023 183 187 172
-24.303 -39.088 2.023 172 155 145
-24.323 -39.060 2.023 185 190 170
-24.343 -39.031 2.023 185 186 170
-24.363 -39.002 2.023 187 180 170
-24.383 -38.973 2.023 185 183 171
-24.403 -38.945 2.023 189 187 174
-24.422 -38.915 2.023 184 176 163
-24.440 -38.885 2.023 168 162 148
-24.462 -38.856 2.024 179 173 159
-24.482 -38.826 2.024 146 140 126
-24.498 -38.795 2.024 174 175 157
