ply
format ascii 1.0
element vertex 1525
property float x
property float y
property float z
property uchar red
property uchar green
property uchar blue
end_header
-4.996 -13.917 2.381 126 124 99
-4.917 -13.879 2.365 207 204 189
-4.489 -13.880 2.273 192 194 183
-4.717 -13.820 2.323 141 142 134
-3.815 -13.082 2.236 201 204 197
-3.232 -11.357 2.526 32 46 21
-3.167 -11.375 2.523 48 62 37
-3.104 -11.399 2.519 44 55 23
-3.043 -11.448 2.510 65 74 29
-2.990 -11.553 2.490 59 68 23
-2.944 -11.672 2.467 59 65 31
-2.900 -11.771 2.449 104 107 80
-2.860 -11.861 2.433 187 186 166
0.973 -15.745 2.905 166 162 153
-3.464 -15.892 2.378 95 95 93
-4.544 -14.977 2.325 155 156 151
-4.579 -14.952 2.328 110 111 97
-4.617 -14.929 2.331 117 115 103
-4.583 -14.859 2.318 131 129 114
-4.664 -14.862 2.332 98 100 79
-4.442 -14.689 2.277 194 195 187
-4.443 -14.651 2.273 184 186 181
-4.287 -14.440 2.227 153 151 130
-4.882 -14.640 2.352 125 120 90
-4.932 -14.612 2.359 96 93 60
-4.959 -14.574 2.362 77 77 51
-4.981 -14.534 2.364 108 108 82
-5.005 -14.494 2.366 82 83 52
-5.023 -14.452 2.367 107 104 73
-5.038 -14.409 2.368 99 96 63
-5.044 -14.364 2.368 87 83 58
-5.046 -14.318 2.366 51 52 38
-5.046 -14.273 2.365 61 64 55
-5.042 -14.227 2.363 38 40 26
-5.040 -14.182 2.361 102 104 80
-5.061 -14.138 2.365 131 125 89
-5.086 -14.095 2.369 112 101 55
-5.093 -14.049 2.370 119 115 70
-5.093 -14.003 2.370 108 104 59
-5.076 -13.958 2.367 152 148 110
-5.036 -13.915 2.359 122 123 92
-4.972 -13.875 2.347 162 162 138
-4.932 -13.836 2.340 120 119 89
-4.926 -13.794 2.340 130 129 108
-4.854 -13.763 2.326 173 174 166
-4.380 -13.745 2.234 194 193 189
-3.855 -13.019 2.232 198 192 178
-3.232 -11.357 2.481 38 48 24
-3.167 -11.368 2.480 30 39 18
-3.103 -11.393 2.476 32 44 22
-3.040 -11.412 2.473 45 58 30
-2.981 -11.457 2.466 57 72 33
-2.933 -11.579 2.444 42 54 18
-2.892 -11.714 2.421 56 62 36
-2.848 -11.791 2.409 58 61 42
-2.997 -12.824 2.219 145 145 137
1.011 -15.761 2.835 159 155 146
-4.494 -14.939 2.286 146 147 142
-4.601 -14.968 2.305 123 124 106
-4.643 -14.947 2.309 79 78 60
-4.661 -14.909 2.308 108 107 86
-4.699 -14.883 2.311 102 104 80
-4.719 -14.846 2.311 95 97 83
-4.717 -14.797 2.306 124 126 121
-4.510 -14.647 2.260 165 167 164
-4.840 -14.669 2.317 99 96 65
-4.907 -14.650 2.327 111 109 70
-4.945 -14.616 2.331 114 114 78
-4.970 -14.578 2.333 111 109 84
-4.995 -14.538 2.335 87 89 65
-5.017 -14.497 2.337 93 97 72
-5.032 -14.455 2.338 90 93 66
-5.044 -14.410 2.338 87 87 59
-5.048 -14.365 2.337 75 73 50
-5.048 -14.319 2.335 94 92 79
-5.049 -14.273 2.334 73 75 64
-5.054 -14.228 2.334 95 96 78
-5.053 -14.183 2.333 84 85 53
-5.080 -14.140 2.337 69 64 24
-5.105 -14.095 2.341 124 113 68
-5.111 -14.050 2.342 137 129 90
-5.109 -14.003 2.342 119 114 76
-5.096 -13.958 2.339 94 91 56
-5.066 -13.913 2.334 87 88 57
-5.020 -13.871 2.326 114 113 82
-4.997 -13.830 2.323 126 123 82
-4.993 -13.786 2.323 115 111 74
-4.927 -13.752 2.312 147 145 122
-4.850 -13.723 2.299 199 198 180
-4.859 -13.680 2.302 174 172 160
-4.580 -13.701 2.252 203 200 193
-3.881 -12.977 2.221 220 211 196
-3.660 -13.037 2.192 145 141 138
-3.232 -11.307 2.445 56 64 25
-3.166 -11.327 2.442 56 66 29
-3.102 -11.371 2.435 58 71 41
-3.041 -11.426 2.427 39 53 28
-2.980 -11.453 2.423 44 60 33
-2.929 -11.551 2.408 40 55 26
-2.889 -11.696 2.385 56 66 42
-2.855 -11.834 2.363 90 97 79
-2.820 -12.361 2.279 132 132 122
1.039 -15.772 2.763 139 135 124
-4.572 -14.998 2.276 137 137 127
-4.628 -14.987 2.282 116 116 92
-4.672 -14.966 2.286 106 106 78
-4.695 -14.930 2.286 150 150 122
-4.729 -14.901 2.288 127 130 103
-4.747 -14.862 2.288 83 86 65
-4.745 -14.813 2.283 154 156 143
-4.742 -14.718 2.276 180 179 174
-4.877 -14.685 2.294 142 142 104
-4.930 -14.659 2.301 111 112 70
-4.961 -14.622 2.303 115 112 77
-4.985 -14.583 2.305 102 98 69
-5.005 -14.541 2.306 110 109 89
-5.026 -14.500 2.307 73 76 57
-5.040 -14.457 2.308 66 69 50
-5.051 -14.412 2.308 64 67 48
-5.060 -14.367 2.308 81 83 61
-5.061 -14.321 2.307 62 61 41
-5.064 -14.275 2.306 57 56 38
-5.071 -14.230 2.306 64 64 40
-5.079 -14.185 2.306 124 122 81
-5.107 -14.142 2.310 126 119 73
-5.126 -14.096 2.313 114 102 60
-5.128 -14.050 2.313 104 94 59
-5.124 -14.003 2.312 101 95 59
-5.111 -13.957 2.310 116 113 80
-5.087 -13.912 2.307 83 83 49
-5.059 -13.869 2.302 130 126 88
-5.041 -13.825 2.300 112 103 64
-5.020 -13.783 2.298 124 114 79
-4.985 -13.743 2.293 145 138 109
-4.944 -13.706 2.287 120 116 91
-4.902 -13.671 2.281 127 125 104
-4.861 -13.637 2.276 146 144 129
-3.899 -12.949 2.206 222 213 198
-3.669 -13.017 2.178 147 143 140
-3.232 -11.305 2.400 40 53 27
-3.165 -11.306 2.400 31 44 16
-3.101 -11.341 2.395 49 59 32
-3.042 -11.434 2.382 21 30 11
-2.983 -11.483 2.376 39 52 34
-2.930 -11.560 2.365 43 54 37
-2.885 -11.666 2.351 52 59 41
-2.843 -11.764 2.337 93 96 79
-2.806 -11.864 2.323 45 45 33
-2.776 -11.975 2.308 165 165 153
-2.746 -12.067 2.296 133 133 121
1.065 -15.783 2.690 134 130 119
-3.588 -15.427 2.218 199 201 177
-3.760 -15.914 2.294 120 125 84
-3.544 -15.034 2.160 96 98 77
-3.621 -15.091 2.171 185 187 165
-3.629 -14.963 2.154 194 198 171
-3.719 -15.103 2.178 117 123 89
-4.124 -15.889 2.309 128 132 107
-4.122 -14.664 2.164 204 202 190
-4.651 -15.003 2.258 132 131 101
-4.699 -14.984 2.262 128 129 97
-4.729 -14.952 2.263 99 99 73
-4.759 -14.919 2.264 88 90 68
-4.777 -14.879 2.263 164 167 146
-4.796 -14.840 2.263 95 97 75
-4.580 -14.682 2.224 105 107 86
-4.804 -14.747 2.258 144 143 123
-4.866 -14.728 2.265 106 104 79
-4.909 -14.698 2.269 108 110 73
-4.946 -14.665 2.273 100 99 68
-4.974 -14.627 2.275 113 109 80
-4.998 -14.587 2.276 104 99 69
-5.016 -14.545 2.277 120 115 93
-5.032 -14.502 2.277 81 78 59
-5.041 -14.457 2.277 114 113 95
-5.052 -14.412 2.277 69 70 54
-5.064 -14.368 2.277 75 78 59
-5.073 -14.323 2.277 88 88 64
-5.084 -14.278 2.278 116 110 86
-5.092 -14.233 2.278 116 115 85
-5.111 -14.188 2.280 100 95 53
-5.133 -14.144 2.283 124 117 73
-5.145 -14.097 2.284 133 124 83
-5.146 -14.050 2.284 109 97 57
-5.146 -14.003 2.284 106 101 59
-5.136 -13.957 2.283 93 91 52
-5.116 -13.911 2.280 113 111 73
-5.098 -13.866 2.278 113 105 66
-5.081 -13.821 2.276 114 105 66
-5.057 -13.778 2.273 123 116 72
-5.031 -13.736 2.270 118 114 69
-4.988 -13.699 2.264 142 140 102
-4.930 -13.666 2.257 185 184 154
-4.897 -13.629 2.253 113 112 91
-3.909 -12.934 2.188 236 227 212
-3.637 -13.088 2.149 163 159 156
-3.402 -13.024 2.147 255 252 236
-3.476 -12.354 2.247 253 248 229
-3.448 -12.249 2.262 255 251 231
-3.406 -12.230 2.264 250 250 226
-3.364 -12.211 2.267 255 255 229
-3.320 -12.202 2.268 255 255 230
-3.276 -12.198 2.268 255 255 229
-3.232 -11.380 2.345 30 41 25
-3.168 -11.396 2.343 36 44 31
-3.106 -11.438 2.338 33 41 28
-3.047 -11.498 2.331 28 35 27
-2.989 -11.537 2.326 31 41 32
-2.933 -11.586 2.321 21 31 22
-2.884 -11.660 2.312 33 40 32
-2.839 -11.739 2.303 31 38 30
-2.798 -11.826 2.292 43 45 31
-2.813 -12.141 2.251 163 165 151
-2.727 -11.988 2.273 42 46 32
-2.683 -12.021 2.271 42 50 35
-2.807 -12.605 2.192 105 106 98
1.092 -15.794 2.616 119 115 104
-3.450 -14.976 2.131 204 203 185
-3.721 -15.956 2.265 113 116 85
-3.769 -15.944 2.265 115 123 72
-3.838 -16.004 2.275 77 85 38
-3.886 -15.985 2.275 91 98 57
-3.943 -15.993 2.278 91 97 59
-3.994 -15.980 2.279 67 74 33
-4.040 -15.955 2.278 104 111 57
-4.093 -15.946 2.280 82 90 39
-4.147 -15.939 2.282 79 86 55
-4.405 -15.669 2.268 125 132 91
-4.477 -15.682 2.275 98 102 77
-4.217 -14.772 2.165 183 180 165
-4.441 -14.900 2.198 126 122 93
-4.664 -15.012 2.231 164 159 127
-4.715 -14.995 2.235 104 104 76
-4.748 -14.964 2.236 75 77 55
-4.777 -14.930 2.237 76 77 61
-4.803 -14.894 2.238 84 85 69
-4.834 -14.860 2.239 91 93 71
-4.866 -14.826 2.241 88 90 69
-4.892 -14.789 2.242 73 74 58
-4.916 -14.750 2.243 101 101 77
-4.934 -14.709 2.243 79 79 55
-4.962 -14.671 2.244 101 101 73
-4.989 -14.632 2.246 112 112 78
-5.012 -14.592 2.247 121 118 83
-5.030 -14.549 2.247 91 85 61
-5.044 -14.505 2.248 92 86 62
-5.054 -14.460 2.247 122 118 91
-5.065 -14.415 2.247 115 114 86
-5.078 -14.371 2.248 106 108 87
-5.090 -14.326 2.248 75 74 54
-5.102 -14.281 2.249 90 85 63
-5.112 -14.235 2.249 59 55 28
-5.131 -14.190 2.251 114 112 74
-5.147 -14.145 2.253 95 90 52
-5.156 -14.098 2.254 114 101 66
-5.162 -14.051 2.254 112 100 62
-5.159 -14.003 2.254 98 90 51
-5.148 -13.956 2.252 101 96 58
-5.135 -13.910 2.251 99 94 56
-5.122 -13.864 2.250 105 100 62
-5.108 -13.819 2.248 105 102 57
-5.096 -13.773 2.247 96 93 42
-5.089 -13.728 2.247 119 118 61
-5.065 -13.685 2.245 117 122 58
-5.029 -13.646 2.241 141 146 88
-4.960 -13.615 2.233 121 123 84
-3.917 -12.921 2.169 245 242 233
-3.695 -12.959 2.150 194 188 176
-3.802 -12.408 2.223 255 250 228
-3.768 -12.381 2.225 228 222 198
-3.735 -12.343 2.228 205 197 174
-3.695 -12.329 2.229 206 195 175
-3.655 -12.314 2.229 217 206 184
-3.615 -12.297 2.230 206 195 173
-3.573 -12.285 2.231 215 202 183
-3.532 -12.272 2.231 218 203 180
-3.490 -12.258 2.232 210 198 174
-3.449 -12.241 2.234 255 255 234
-3.406 -12.229 2.235 249 253 228
-3.363 -12.218 2.236 255 255 237
-3.320 -12.208 2.237 252 255 233
-3.276 -12.213 2.236 255 255 230
-3.232 -11.425 2.297 22 29 21
-3.169 -11.439 2.295 29 36 28
-3.107 -11.472 2.292 26 34 23
-3.048 -11.521 2.286 29 37 26
-2.991 -11.558 2.283 23 33 24
-2.935 -11.597 2.279 25 35 26
-2.884 -11.657 2.273 24 34 25
-2.835 -11.718 2.267 24 34 25
-2.790 -11.786 2.260 49 57 42
-2.751 -11.863 2.252 117 124 108
-2.712 -11.930 2.246 47 53 39
-2.677 -12.001 2.239 49 52 41
-2.641 -12.058 2.234 121 122 114
-2.680 -12.335 2.202 196 196 184
-2.625 -12.309 2.207 144 145 131
-0.697 -14.981 2.312 222 217 211
1.122 -15.807 2.542 103 99 88
-4.227 -19.740 2.670 158 155 148
-3.683 -16.272 2.266 117 116 96
-3.669 -15.950 2.230 86 87 55
-3.736 -16.016 2.239 117 123 77
-3.797 -16.047 2.244 79 87 40
-3.859 -16.070 2.248 109 117 66
-3.906 -16.046 2.247 54 62 13
-3.953 -16.020 2.246 93 100 58
-4.001 -15.998 2.246 209 216 175
-4.049 -15.976 2.246 88 95 41
-4.096 -15.953 2.245 112 120 69
-4.149 -15.943 2.247 58 65 32
-4.360 -15.693 2.234 78 84 46
-4.406 -15.672 2.235 135 138 117
-4.495 -14.989 2.184 163 159 132
-4.604 -15.021 2.197 129 125 87
-4.682 -15.025 2.204 125 121 84
-4.729 -15.004 2.207 98 99 68
-4.761 -14.972 2.208 66 68 46
-4.793 -14.939 2.209 67 68 52
-4.824 -14.905 2.211 69 70 54
-4.857 -14.872 2.212 91 93 71
-4.887 -14.837 2.213 66 67 49
-4.914 -14.799 2.214 73 74 58
-4.938 -14.760 2.215 79 81 60
-4.957 -14.718 2.215 84 86 65
-4.977 -14.677 2.215 74 74 48
-5.003 -14.637 2.216 114 113 82
-5.025 -14.596 2.217 104 104 70
-5.043 -14.553 2.218 108 102 76
-5.059 -14.509 2.218 99 95 70
-5.077 -14.466 2.219 92 90 65
-5.090 -14.421 2.219 116 117 86
-5.096 -14.374 2.219 104 106 84
-5.102 -14.328 2.218 69 68 47
-5.114 -14.283 2.219 96 94 71
-5.124 -14.237 2.219 78 74 47
-5.139 -14.191 2.220 82 82 46
-5.154 -14.145 2.222 99 94 56
-5.165 -14.098 2.223 112 100 62
-5.172 -14.051 2.223 112 103 64
-5.170 -14.003 2.223 105 93 53
-5.162 -13.956 2.222 131 119 79
-5.153 -13.909 2.221 129 120 79
-5.140 -13.863 2.220 108 99 58
-5.136 -13.816 2.220 94 92 44
-5.135 -13.769 2.221 114 111 60
-5.134 -13.721 2.221 122 119 66
-5.118 -13.676 2.220 124 127 70
-5.102 -13.631 2.219 144 143 86
-5.056 -13.594 2.215 117 114 69
-4.900 -13.585 2.198 193 190 159
-4.863 -13.552 2.195 138 137 107
-4.676 -13.565 2.174 139 135 108
-4.802 -13.353 2.196 157 152 114
-4.764 -13.324 2.193 113 109 74
-4.152 -13.568 2.117 140 136 107
-4.608 -13.268 2.179 113 112 84
-4.655 -13.197 2.188 127 126 105
-4.601 -13.182 2.184 175 176 162
-4.602 -13.135 2.187 131 134 115
-3.979 -12.823 2.161 226 220 204
-3.838 -12.992 2.136 255 250 234
-3.971 -12.698 2.173 255 250 234
-3.970 -12.621 2.180 222 213 196
-3.966 -12.545 2.188 211 202 185
-3.937 -12.512 2.190 214 203 185
-3.904 -12.486 2.191 223 210 191
-3.872 -12.458 2.192 221 208 191
-3.844 -12.417 2.196 223 212 194
-3.811 -12.383 2.198 221 206 187
-3.777 -12.354 2.200 222 207 186
-3.741 -12.325 2.202 224 206 182
-3.701 -12.308 2.202 223 206 180
-3.660 -12.293 2.203 221 204 178
-3.619 -12.279 2.203 214 197 171
-3.577 -12.269 2.203 214 197 167
-3.535 -12.257 2.204 215 199 166
-3.492 -12.247 2.204 216 201 172
-3.450 -12.234 2.205 255 253 230
-3.406 -12.228 2.205 255 255 232
-3.363 -12.220 2.206 254 249 227
-3.320 -12.213 2.206 246 241 222
-3.276 -12.200 2.207 255 255 233
-3.232 -11.432 2.253 27 33 29
-3.168 -11.434 2.253 31 39 28
-3.107 -11.469 2.250 34 42 27
-3.048 -11.521 2.245 23 31 20
-2.990 -11.550 2.243 33 43 32
-2.934 -11.587 2.240 24 34 23
-2.881 -11.643 2.235 42 52 41
-2.832 -11.702 2.230 25 35 24
-2.786 -11.761 2.225 29 40 24
-2.745 -11.838 2.219 34 42 27
-2.709 -11.917 2.212 47 50 39
-2.754 -12.277 2.176 114 115 107
-2.939 -13.038 2.099 196 195 190
-2.801 -12.700 2.135 189 189 179
-2.587 -12.201 2.189 83 84 66
-2.674 -12.557 2.153 59 60 44
-2.488 -12.690 2.149 119 119 95
-2.520 -12.816 2.136 134 133 113
-0.669 -14.992 2.270 227 222 216
1.129 -15.810 2.465 103 99 88
-4.457 -21.064 2.706 162 160 148
-3.901 -17.371 2.338 203 202 182
-3.696 -16.072 2.209 98 100 61
-3.756 -16.096 2.212 112 119 65
-3.812 -16.100 2.214 90 97 56
-3.869 -16.104 2.216 110 118 69
-3.923 -16.096 2.217 110 119 66
-3.966 -16.056 2.215 129 137 90
-4.014 -16.032 2.214 56 63 21
-4.059 -16.001 2.213 192 200 151
-4.103 -15.970 2.212 108 116 69
-4.154 -15.954 2.213 75 81 43
-4.018 -15.476 2.164 148 154 118
-4.250 -15.802 2.204 97 101 78
-4.282 -15.575 2.186 146 148 126
-4.219 -15.405 2.169 143 146 119
-4.091 -15.051 2.133 182 185 156
-4.595 -15.584 2.206 110 112 88
-4.451 -15.004 2.155 182 176 150
-4.546 -15.029 2.164 119 114 82
-4.622 -15.035 2.171 100 98 59
-4.691 -15.032 2.176 93 91 53
-4.735 -15.008 2.178 107 106 75
-4.769 -14.977 2.179 80 79 58
-4.803 -14.945 2.180 68 67 49
-4.835 -14.912 2.182 69 68 50
-4.869 -14.879 2.183 83 84 66
-4.898 -14.842 2.184 65 67 46
-4.924 -14.804 2.184 119 121 100
-4.948 -14.764 2.185 70 71 53
-4.968 -14.723 2.185 75 78 61
-4.988 -14.681 2.185 68 69 51
-5.011 -14.640 2.186 87 87 63
-5.032 -14.598 2.187 100 99 69
-5.052 -14.556 2.187 120 116 89
-5.067 -14.511 2.188 104 102 79
-5.081 -14.467 2.188 66 65 45
-5.095 -14.422 2.188 99 101 77
-5.104 -14.376 2.188 74 76 54
-5.111 -14.330 2.188 58 57 36
-5.122 -14.284 2.188 105 103 78
-5.133 -14.238 2.189 49 45 16
-5.145 -14.192 2.189 63 62 31
-5.164 -14.146 2.191 107 102 64
-5.182 -14.099 2.192 133 121 79
-5.191 -14.052 2.193 134 125 82
-5.198 -14.003 2.194 135 122 77
-5.201 -13.955 2.194 126 114 66
-5.196 -13.907 2.194 121 111 62
-5.186 -13.859 2.193 118 110 61
-5.178 -13.812 2.193 116 116 64
-5.171 -13.764 2.192 102 99 48
-5.161 -13.717 2.192 98 92 44
-5.145 -13.671 2.191 117 115 67
-5.123 -13.627 2.190 102 97 42
-5.082 -13.588 2.187 161 154 102
-5.017 -13.556 2.181 191 183 136
-4.959 -13.525 2.177 185 175 126
-4.854 -13.511 2.167 214 202 164
-4.730 -13.508 2.155 220 206 169
-4.934 -13.394 2.178 136 122 77
-4.952 -13.340 2.182 166 150 99
-4.943 -13.295 2.182 138 126 74
-4.929 -13.251 2.183 159 149 98
-4.903 -13.213 2.182 120 112 63
-4.851 -13.188 2.179 127 121 73
-4.817 -13.156 2.177 166 163 110
-4.757 -13.139 2.173 126 123 82
-4.208 -13.418 2.112 128 126 103
-4.660 -13.099 2.167 168 171 144
-3.914 -13.251 2.100 252 249 234
-3.903 -13.226 2.101 255 254 239
-4.058 -12.996 2.128 247 242 223
-4.198 -12.765 2.155 222 215 197
-4.181 -12.724 2.157 209 202 183
-4.164 -12.680 2.159 212 206 184
-4.138 -12.646 2.161 220 210 183
-4.111 -12.614 2.162 225 213 187
-4.085 -12.579 2.164 221 209 183
-4.053 -12.553 2.164 222 210 184
-4.022 -12.525 2.165 228 212 187
-3.991 -12.495 2.166 226 208 184
-3.956 -12.471 2.167 226 210 185
-3.920 -12.449 2.167 229 213 188
-3.886 -12.424 2.168 222 208 181
-3.850 -12.400 2.169 216 202 175
-3.814 -12.377 2.170 217 203 176
-3.777 -12.353 2.171 219 205 178
-3.739 -12.330 2.172 232 216 193
-3.700 -12.310 2.173 225 207 185
-3.659 -12.295 2.173 190 175 156
-3.618 -12.284 2.174 142 129 112
-3.575 -12.274 2.174 141 128 112
-3.534 -12.260 2.174 143 130 114
-3.492 -12.250 2.175 114 106 95
-3.450 -12.236 2.175 80 80 78
-3.406 -12.231 2.175 54 63 60
-3.363 -12.225 2.176 68 74 72
-3.320 -12.211 2.177 73 82 81
-3.276 -12.207 2.177 74 90 90
-3.232 -11.387 2.215 27 36 19
-3.167 -11.366 2.216 55 65 41
-3.104 -11.399 2.214 76 86 61
-3.048 -11.515 2.205 51 59 48
-2.989 -11.538 2.203 31 41 30
-2.932 -11.575 2.201 26 37 23
-2.880 -11.631 2.197 25 36 22
-2.831 -11.696 2.192 28 39 25
-2.785 -11.760 2.188 25 31 19
-2.746 -11.840 2.182 88 91 80
-2.710 -11.921 2.176 75 81 71
-2.677 -12.000 2.170 41 46 39
-2.642 -12.059 2.167 86 87 79
-2.612 -12.129 2.162 164 164 152
-2.585 -12.196 2.157 114 114 102
-2.633 -12.453 2.136 61 61 53
-2.595 -12.812 2.111 172 171 153
-2.474 -12.667 2.126 185 185 159
-2.438 -12.679 2.127 152 152 124
-2.399 -12.689 2.128 98 96 81
-0.648 -15.000 2.227 220 215 209
0.306 -15.469 2.314 105 101 90
-3.383 -15.227 2.101 238 241 210
-3.380 -15.007 2.083 113 119 81
-4.428 -20.900 2.574 170 169 151
-4.157 -18.657 2.389 183 182 164
-3.706 -16.117 2.178 43 43 17
-3.761 -16.116 2.179 138 142 105
-3.819 -16.124 2.180 122 129 87
-3.876 -16.128 2.182 95 102 61
-3.930 -16.118 2.183 99 106 64
-3.978 -16.089 2.182 71 79 32
-4.026 -16.063 2.181 83 90 46
-4.072 -16.033 2.180 65 74 31
-4.117 -16.002 2.179 92 97 56
-4.162 -15.970 2.178 89 92 49
-4.198 -15.923 2.176 75 83 36
-4.242 -15.893 2.176 90 97 53
-4.277 -15.849 2.174 97 104 62
-4.300 -15.786 2.170 110 115 83
-4.372 -15.623 2.162 165 165 141
-4.496 -15.624 2.169 130 130 102
-4.335 -15.348 2.143 154 154 126
-4.234 -15.165 2.126 178 178 154
-4.353 -15.020 2.124 138 134 99
-4.416 -15.026 2.128 142 133 100
-4.482 -15.029 2.133 147 141 109
-4.559 -15.039 2.138 102 97 65
-4.633 -15.043 2.143 131 128 95
-4.697 -15.035 2.147 112 111 80
-4.745 -15.014 2.149 92 91 60
-4.780 -14.984 2.150 73 71 48
-4.814 -14.952 2.151 78 75 58
-4.848 -14.919 2.152 82 79 60
-4.879 -14.884 2.153 72 73 55
-4.904 -14.845 2.154 68 70 49
-4.933 -14.808 2.154 80 82 58
-4.959 -14.769 2.155 78 79 61
-4.979 -14.727 2.155 70 72 58
-4.996 -14.684 2.155 51 53 39
-5.015 -14.641 2.155 83 84 68
-5.036 -14.600 2.156 82 82 56
-5.058 -14.557 2.157 102 101 71
-5.069 -14.512 2.156 82 81 60
-5.082 -14.467 2.156 59 60 46
-5.100 -14.423 2.157 89 91 70
-5.110 -14.377 2.157 72 73 55
-5.121 -14.331 2.157 76 74 59
-5.131 -14.285 2.157 129 126 107
-5.141 -14.239 2.158 70 65 43
-5.148 -14.192 2.158 63 62 34
-5.176 -14.147 2.160 108 103 65
-5.202 -14.100 2.162 92 81 35
-5.213 -14.052 2.162 108 100 54
-5.218 -14.003 2.163 104 96 49
-5.221 -13.955 2.163 123 115 68
-5.218 -13.906 2.163 122 116 68
-5.214 -13.857 2.163 117 111 63
-5.207 -13.809 2.163 121 121 67
-5.198 -13.761 2.162 124 121 66
-5.184 -13.714 2.162 130 123 69
-5.167 -13.668 2.161 119 113 61
-5.149 -13.622 2.160 118 114 53
-5.110 -13.582 2.158 145 139 81
-5.039 -13.551 2.153 198 188 137
-4.997 -13.515 2.150 172 158 119
-4.997 -13.468 2.151 141 129 87
-5.008 -13.416 2.153 153 145 96
-5.025 -13.362 2.156 137 127 76
-5.012 -13.317 2.156 141 129 81
-5.000 -13.271 2.157 127 114 69
-4.979 -13.229 2.157 131 121 72
-4.954 -13.189 2.156 173 165 116
-4.917 -13.155 2.155 141 134 82
-4.897 -13.113 2.155 89 82 28
-4.859 -13.081 2.153 145 140 85
-4.830 -13.045 2.153 103 102 56
-4.642 -13.110 2.137 146 149 122
-4.328 -13.058 2.119 252 253 237
-4.339 -13.000 2.123 255 253 234
-4.333 -12.955 2.125 255 255 234
-4.325 -12.910 2.127 226 215 193
-4.310 -12.870 2.128 223 211 189
-4.289 -12.836 2.129 231 219 197
-4.266 -12.804 2.130 224 212 190
-4.238 -12.777 2.130 222 210 188
-4.210 -12.750 2.130 225 210 187
-4.185 -12.717 2.131 231 216 193
-4.162 -12.682 2.132 224 210 184
-4.136 -12.649 2.134 225 210 187
-4.111 -12.615 2.135 224 209 186
-4.083 -12.583 2.136 214 199 176
-4.054 -12.552 2.137 227 212 189
-4.022 -12.525 2.137 241 226 205
-3.990 -12.497 2.138 221 206 187
-3.956 -12.472 2.139 170 159 139
-3.922 -12.445 2.140 112 104 85
-3.888 -12.420 2.141 90 83 67
-3.851 -12.398 2.141 87 79 66
-3.813 -12.379 2.141 83 79 67
-3.776 -12.356 2.142 68 66 54
-3.736 -12.339 2.143 47 46 41
-3.696 -12.324 2.143 44 45 40
-3.656 -12.310 2.143 25 29 28
-3.615 -12.296 2.143 43 48 51
-3.574 -12.284 2.144 43 47 50
-3.532 -12.272 2.144 71 75 76
-3.490 -12.258 2.145 73 85 85
-3.448 -12.247 2.145 82 105 111
-3.405 -12.238 2.145 114 147 154
-3.362 -12.228 2.146 126 154 157
-3.319 -12.214 2.147 144 165 168
-3.275 -12.215 2.147 128 156 160
-3.232 -11.295 2.177 26 37 20
-3.165 -11.306 2.177 31 42 25
-3.103 -11.388 2.172 26 37 21
-3.047 -11.504 2.164 24 34 25
-2.987 -11.523 2.163 31 39 28
-2.930 -11.560 2.161 30 38 27
-2.877 -11.612 2.158 29 37 26
-2.827 -11.675 2.155 28 36 25
-2.786 -11.764 2.150 115 121 111
-2.747 -11.844 2.145 127 133 123
-2.728 -11.995 2.136 74 77 68
-2.730 -12.192 2.123 196 197 189
-2.647 -12.076 2.132 134 135 130
-2.516 -12.389 2.116 87 89 67
-2.492 -12.439 2.113 47 51 26
-2.478 -12.505 2.110 101 108 77
-2.470 -12.579 2.106 89 93 56
-2.443 -12.611 2.105 110 111 79
-2.426 -12.659 2.103 117 116 96
-0.631 -15.006 2.183 206 202 193
-0.033 -15.328 2.227 111 108 99
-3.311 -15.626 2.106 118 117 86
-3.350 -15.616 2.106 177 175 154
-3.411 -15.824 2.120 114 112 89
-3.458 -15.837 2.121 70 74 37
-3.509 -15.877 2.124 103 112 69
-4.429 -20.906 2.459 171 170 149
-4.168 -18.710 2.315 206 206 178
-3.716 -16.160 2.145 122 124 85
-3.770 -16.153 2.145 192 195 164
-3.828 -16.159 2.147 81 87 49
-3.884 -16.154 2.147 120 128 87
-3.937 -16.138 2.147 58 66 27
-3.986 -16.113 2.147 76 84 45
-4.037 -16.091 2.147 89 97 56
-4.086 -16.067 2.146 93 104 64
-4.131 -16.034 2.146 75 83 42
-4.174 -15.995 2.144 98 106 59
-4.214 -15.955 2.143 104 112 61
-4.255 -15.918 2.142 154 162 111
-4.289 -15.870 2.141 60 65 24
-4.292 -15.773 2.135 181 183 162
-4.381 -15.477 2.122 103 102 71
-4.574 -15.560 2.135 166 170 135
-4.235 -14.959 2.091 131 128 95
-4.384 -15.048 2.102 128 119 86
-4.441 -15.047 2.105 139 131 94
-4.496 -15.041 2.107 122 117 77
-4.561 -15.041 2.110 133 129 91
-4.629 -15.040 2.114 109 106 73
-4.689 -15.030 2.117 94 90 61
-4.747 -15.016 2.119 86 85 54
-4.787 -14.989 2.121 87 88 57
-4.824 -14.958 2.122 90 90 66
-4.859 -14.925 2.123 89 88 68
-4.885 -14.887 2.123 64 69 49
-4.909 -14.848 2.123 86 84 63
-4.941 -14.812 2.124 115 107 86
-4.966 -14.772 2.124 75 74 56
-4.987 -14.731 2.125 51 56 36
-5.001 -14.686 2.124 86 90 76
-5.019 -14.643 2.124 55 57 46
-5.041 -14.601 2.125 86 88 66
-5.061 -14.558 2.125 95 96 65
-5.068 -14.512 2.125 65 63 48
-5.081 -14.467 2.125 69 68 50
-5.101 -14.423 2.126 93 92 72
-5.111 -14.377 2.126 53 56 49
-5.124 -14.332 2.126 56 58 45
-5.136 -14.286 2.126 94 96 75
-5.146 -14.240 2.126 75 76 60
-5.146 -14.192 2.126 53 52 31
-5.187 -14.148 2.128 112 107 69
-5.214 -14.101 2.130 112 102 53
-5.222 -14.052 2.130 90 86 41
-5.223 -14.003 2.131 89 85 47
-5.223 -13.955 2.131 109 104 64
-5.226 -13.905 2.131 97 93 45
-5.230 -13.856 2.131 134 131 76
-5.227 -13.807 2.131 119 120 63
-5.217 -13.758 2.131 72 71 15
-5.211 -13.710 2.131 129 127 70
-5.206 -13.661 2.131 137 133 72
-5.207 -13.611 2.132 121 121 51
-5.196 -13.562 2.132 139 138 71
-5.116 -13.531 2.127 83 81 24
-5.017 -13.509 2.121 147 143 98
-5.050 -13.452 2.125 127 122 67
-5.083 -13.392 2.128 135 129 69
-5.083 -13.341 2.129 138 132 74
-5.057 -13.299 2.128 110 102 53
-5.035 -13.256 2.128 135 125 72
-5.014 -13.213 2.128 92 85 31
-4.990 -13.172 2.127 132 126 76
-4.953 -13.137 2.126 117 110 58
-4.919 -13.101 2.125 124 119 64
-4.886 -13.066 2.125 112 107 52
-4.830 -13.045 2.122 104 100 55
-4.370 -13.282 2.088 239 233 209
-4.395 -13.226 2.092 123 120 87
-4.466 -13.134 2.099 147 148 116
-4.423 -13.120 2.097 255 255 236
-4.386 -13.103 2.096 254 253 235
-4.368 -13.071 2.096 253 255 231
-4.355 -13.035 2.097 253 255 231
-4.347 -12.993 2.099 255 253 228
-4.328 -12.959 2.099 255 255 228
-4.319 -12.916 2.101 228 211 183
-4.306 -12.875 2.102 225 208 180
-4.289 -12.837 2.103 216 205 177
-4.267 -12.803 2.104 223 211 187
-4.242 -12.773 2.104 233 219 193
-4.215 -12.743 2.105 236 220 195
-4.191 -12.709 2.106 185 169 146
-4.168 -12.674 2.107 132 119 100
-4.140 -12.644 2.107 92 83 66
-4.110 -12.616 2.108 84 78 66
-4.083 -12.583 2.109 85 85 77
-4.051 -12.558 2.109 55 55 47
-4.017 -12.534 2.109 44 45 37
-3.982 -12.513 2.109 36 39 32
-3.947 -12.490 2.110 33 42 37
-3.912 -12.467 2.110 30 42 40
-3.876 -12.447 2.110 47 61 62
-3.841 -12.424 2.111 66 77 81
-3.804 -12.402 2.111 92 101 106
-3.768 -12.379 2.112 97 105 108
-3.731 -12.357 2.113 78 81 88
-3.693 -12.335 2.113 73 80 88
-3.654 -12.317 2.114 70 84 93
-3.614 -12.300 2.114 73 87 98
-3.573 -12.287 2.115 71 86 93
-3.532 -12.270 2.115 104 118 121
-3.491 -12.253 2.116 110 128 130
-3.449 -12.239 2.117 130 163 168
-3.407 -12.225 2.117 126 168 167
-3.364 -12.213 2.118 129 158 154
-3.320 -12.197 2.119 63 75 71
-3.275 -12.220 2.117 59 77 81
-3.232 -11.330 2.131 26 37 21
-3.167 -11.364 2.130 27 38 24
-3.105 -11.432 2.126 27 37 26
-3.046 -11.488 2.124 33 43 34
-2.986 -11.514 2.123 34 42 31
-2.929 -11.552 2.121 33 41 30
-2.874 -11.596 2.120 29 37 26
-2.823 -11.648 2.117 29 37 26
-2.777 -11.720 2.114 45 53 42
-2.739 -11.812 2.110 59 65 55
-2.880 -12.599 2.071 50 53 44
-2.751 -12.661 2.070 148 150 137
-2.570 -12.288 2.090 70 74 57
-2.518 -12.281 2.092 109 111 89
-2.495 -12.341 2.089 97 99 77
-2.475 -12.404 2.087 88 91 70
-2.452 -12.454 2.085 75 82 51
-2.428 -12.499 2.084 46 48 24
-2.415 -12.562 2.081 53 53 29
-2.428 -12.664 2.077 100 99 78
-2.287 -13.468 2.053 89 90 72
-2.287 -13.499 2.053 92 92 66
-0.627 -15.008 2.137 192 188 179
-0.035 -15.327 2.170 106 106 98
-3.205 -15.078 2.053 128 117 89
-3.232 -15.184 2.058 182 171 141
-3.266 -15.412 2.069 129 124 86
-3.315 -15.698 2.083 126 129 84
-3.357 -15.705 2.084 166 166 130
-3.413 -15.848 2.091 164 163 133
-3.471 -15.941 2.096 101 105 70
-3.525 -15.983 2.098 69 76 42
-4.435 -20.937 2.346 174 173 152
-3.825 -16.989 2.150 156 158 119
-3.727 -16.209 2.111 93 100 46
-3.781 -16.197 2.111 129 136 92
-3.839 -16.200 2.112 97 104 60
-3.895 -16.191 2.112 88 100 50
-3.948 -16.172 2.112 102 113 71
-3.997 -16.143 2.112 67 77 43
-4.047 -16.118 2.111 55 65 31
-4.097 -16.092 2.111 99 109 74
-4.143 -16.059 2.110 54 65 25
-4.191 -16.033 2.110 100 109 64
-4.238 -16.002 2.110 117 126 73
-4.279 -15.962 2.109 128 136 76
-4.314 -15.914 2.108 116 123 71
-4.021 -15.320 2.075 142 146 109
-4.057 -15.306 2.076 90 93 62
-4.275 -15.485 2.089 150 155 114
-4.437 -15.629 2.099 133 136 93
-4.481 -15.604 2.100 151 154 99
-4.524 -15.578 2.100 116 126 65
-4.566 -15.551 2.100 90 99 44
-4.506 -15.278 2.089 103 110 56
-4.441 -15.155 2.082 95 94 46
-4.422 -15.083 2.079 111 103 64
-4.460 -15.063 2.080 119 114 76
-4.507 -15.050 2.081 91 86 54
-4.557 -15.038 2.083 112 107 78
-4.618 -15.031 2.085 105 101 74
-4.676 -15.021 2.087 101 100 72
-4.742 -15.013 2.089 94 92 67
-4.791 -14.991 2.091 101 101 75
-4.831 -14.962 2.092 92 91 70
-4.864 -14.928 2.092 86 87 69
-4.888 -14.889 2.092 67 71 54
-4.913 -14.850 2.092 76 75 55
-4.944 -14.814 2.093 94 86 63
-4.969 -14.774 2.093 73 71 48
-4.991 -14.732 2.094 82 84 63
-5.005 -14.688 2.093 75 75 63
-5.019 -14.643 2.093 55 53 41
-5.042 -14.601 2.094 87 85 64
-5.060 -14.558 2.094 79 79 51
-5.068 -14.512 2.094 91 89 74
-5.082 -14.467 2.094 90 89 69
-5.101 -14.423 2.094 86 85 65
-5.106 -14.376 2.094 49 50 44
-5.117 -14.331 2.094 42 44 31
-5.134 -14.286 2.094 54 56 34
-5.148 -14.240 2.095 82 83 67
-5.149 -14.192 2.095 32 31 10
-5.193 -14.148 2.097 105 100 62
-5.218 -14.101 2.098 116 108 59
-5.224 -14.052 2.098 70 67 22
-5.219 -14.003 2.098 86 82 47
-5.220 -13.955 2.098 101 95 59
-5.228 -13.905 2.098 100 96 49
-5.241 -13.855 2.099 109 106 51
-5.244 -13.805 2.099 115 114 60
-5.242 -13.755 2.100 106 106 52
-5.257 -13.703 2.101 114 114 54
-5.272 -13.649 2.102 123 122 57
-5.277 -13.596 2.102 121 122 56
-5.273 -13.545 2.103 105 107 42
-5.249 -13.498 2.102 104 105 47
-5.190 -13.461 2.100 91 91 37
-5.151 -13.421 2.099 94 91 36
-5.151 -13.369 2.099 139 135 74
-5.138 -13.321 2.099 105 100 42
-5.115 -13.277 2.099 119 113 63
-5.088 -13.234 2.099 130 123 68
-5.064 -13.191 2.098 120 115 60
-5.038 -13.149 2.098 141 139 88
-5.010 -13.108 2.098 102 97 42
-4.975 -13.072 2.097 111 109 52
-4.929 -13.042 2.096 115 114 58
-4.765 -13.085 2.088 234 231 186
-4.505 -13.197 2.074 255 255 226
-4.461 -13.182 2.073 255 255 227
-4.435 -13.155 2.072 155 151 124
-4.423 -13.120 2.073 255 255 237
-4.405 -13.088 2.073 255 255 240
-4.387 -13.055 2.073 254 253 233
-4.368 -13.023 2.074 249 248 228
-4.349 -12.991 2.074 255 254 235
-4.329 -12.959 2.074 255 255 240
-4.316 -12.919 2.075 94 88 76
-4.303 -12.878 2.076 78 74 63
-4.284 -12.842 2.077 67 69 58
-4.262 -12.809 2.078 55 52 45
-4.239 -12.776 2.078 38 43 39
-4.213 -12.745 2.078 31 33 32
-4.189 -12.712 2.079 26 27 31
-4.165 -12.678 2.080 36 43 49
-4.137 -12.649 2.080 48 57 62
-4.106 -12.622 2.080 43 56 62
-4.075 -12.596 2.081 69 84 91
-4.044 -12.568 2.081 72 83 87
-4.014 -12.540 2.082 99 105 103
-3.982 -12.513 2.082 100 106 104
-3.949 -12.488 2.082 100 110 109
-3.915 -12.461 2.083 74 89 86
-3.879 -12.441 2.083 74 85 81
-3.844 -12.416 2.084 90 97 89
-3.808 -12.392 2.084 98 102 88
-3.770 -12.374 2.084 112 115 98
-3.734 -12.348 2.085 110 111 95
-3.695 -12.327 2.085 94 101 85
-3.656 -12.309 2.086 101 114 97
-3.616 -12.290 2.086 137 149 135
-3.575 -12.275 2.087 140 151 137
-3.534 -12.258 2.087 195 201 187
-3.493 -12.242 2.087 169 177 162
-3.451 -12.228 2.088 173 195 182
-3.408 -12.213 2.088 164 198 197
-3.365 -12.199 2.089 136 161 158
-3.321 -12.189 2.089 76 86 87
-3.276 -12.202 2.089 65 80 87
-3.232 -11.337 2.087 38 49 33
-3.167 -11.373 2.086 30 41 27
-3.105 -11.430 2.084 22 32 21
-3.045 -11.471 2.083 27 37 28
-2.985 -11.504 2.082 35 43 32
-2.928 -11.543 2.081 34 42 31
-2.873 -11.584 2.080 34 42 31
-2.820 -11.632 2.079 34 42 31
-2.771 -11.687 2.077 38 48 37
-2.728 -11.760 2.075 39 47 36
-2.691 -11.846 2.073 37 43 33
-2.706 -12.106 2.064 56 57 49
-2.812 -12.619 2.047 149 145 133
-2.621 -12.155 2.064 79 80 64
-2.569 -12.151 2.064 44 53 32
-2.524 -12.170 2.064 50 60 36
-2.508 -12.257 2.062 82 85 64
-2.491 -12.332 2.060 106 109 90
-2.470 -12.394 2.058 84 87 68
-2.450 -12.451 2.057 121 125 100
-2.427 -12.499 2.056 139 143 110
-2.416 -12.563 2.054 193 196 165
-2.402 -12.620 2.053 98 100 76
-2.442 -12.756 2.048 100 101 85
-2.439 -12.818 2.047 114 110 98
-2.288 -13.469 2.036 140 143 114
-2.273 -13.491 2.036 116 116 88
-2.266 -13.518 2.035 118 119 88
-2.251 -13.540 2.036 116 117 86
-2.234 -13.561 2.036 164 163 142
0.491 -15.440 2.131 179 175 166
-0.043 -15.324 2.113 100 100 92
-3.108 -15.002 2.033 126 120 88
-3.157 -15.008 2.033 191 180 158
-3.177 -15.108 2.036 118 107 77
-3.203 -15.175 2.038 137 123 88
-3.232 -15.288 2.042 134 125 84
-3.273 -15.672 2.055 117 114 69
-3.317 -15.738 2.057 118 122 71
-3.363 -15.791 2.059 81 85 35
-3.422 -15.933 2.063 140 140 106
-3.479 -16.011 2.066 102 105 74
-3.534 -16.043 2.068 86 93 62
-4.446 -21.003 2.233 191 190 170
-3.710 -16.408 2.080 151 152 120
-3.734 -16.240 2.075 84 92 45
-3.789 -16.228 2.075 94 100 66
-3.848 -16.232 2.076 75 83 46
-3.904 -16.221 2.076 77 90 37
-3.957 -16.200 2.076 87 98 58
-4.007 -16.172 2.075 58 67 38
-4.052 -16.130 2.075 78 87 56
-4.102 -16.104 2.074 71 80 49
-4.152 -16.079 2.074 50 60 25
-4.202 -16.056 2.074 110 119 74
-4.250 -16.027 2.074 111 120 67
-4.293 -15.990 2.074 126 134 83
-4.328 -15.939 2.073 105 112 68
-4.343 -15.858 2.071 103 110 69
-4.363 -15.790 2.069 159 166 124
-4.402 -15.755 2.069 101 111 61
-4.425 -15.698 2.068 99 106 65
-4.448 -15.643 2.067 201 206 166
-4.485 -15.609 2.067 121 125 74
-4.532 -15.589 2.067 87 95 44
-4.579 -15.565 2.068 88 97 50
-4.602 -15.516 2.067 86 94 47
-4.588 -15.428 2.064 109 116 64
-4.551 -15.323 2.061 103 111 62
-4.435 -15.149 2.054 79 80 40
-4.419 -15.080 2.052 115 109 77
-4.466 -15.068 2.053 87 80 54
-4.513 -15.055 2.054 108 103 83
-4.569 -15.047 2.056 131 127 100
-4.628 -15.039 2.057 97 97 63
-4.684 -15.026 2.058 94 95 63
-4.735 -15.008 2.059 102 100 75
-4.788 -14.989 2.060 104 103 82
-4.831 -14.962 2.061 92 91 73
-4.864 -14.928 2.061 63 64 48
-4.888 -14.889 2.061 41 43 30
-4.915 -14.851 2.062 79 80 64
-4.946 -14.814 2.062 101 99 76
-4.971 -14.774 2.062 103 103 77
-4.991 -14.732 2.062 83 82 62
-5.006 -14.688 2.062 93 90 75
-5.021 -14.644 2.062 64 58 44
-5.042 -14.601 2.062 98 93 71
-5.058 -14.557 2.062 92 90 67
-5.068 -14.512 2.062 84 82 69
-5.083 -14.467 2.062 92 91 70
-5.100 -14.423 2.063 93 92 71
-5.103 -14.376 2.062 65 65 53
-5.120 -14.331 2.063 45 44 26
-5.138 -14.286 2.063 94 94 70
-5.145 -14.239 2.063 50 48 25
-5.155 -14.193 2.063 63 59 32
-5.197 -14.148 2.065 104 99 61
-5.221 -14.101 2.065 100 97 46
-5.227 -14.052 2.065 129 127 79
-5.216 -14.003 2.065 101 97 59
-5.218 -13.955 2.065 77 74 33
-5.230 -13.905 2.065 94 92 44
-5.245 -13.855 2.066 113 112 56
-5.252 -13.804 2.066 105 104 48
-5.272 -13.752 2.067 113 114 56
-5.302 -13.696 2.069 121 123 60
-5.320 -13.641 2.069 114 117 50
-5.317 -13.589 2.070 117 118 60
-5.307 -13.537 2.070 124 127 70
-5.297 -13.486 2.070 115 119 60
-5.275 -13.438 2.069 132 136 75
-5.247 -13.392 2.069 104 103 47
-5.220 -13.346 2.069 101 100 43
-5.189 -13.303 2.068 108 107 50
-5.167 -13.257 2.068 128 126 75
-5.141 -13.213 2.068 108 105 52
-5.114 -13.169 2.067 106 104 53
-5.081 -13.129 2.067 91 93 43
-5.046 -13.090 2.066 145 144 90
-5.008 -13.054 2.066 102 101 44
-4.962 -13.023 2.065 86 87 29
-4.674 -13.139 2.055 168 167 119
-4.532 -13.180 2.050 238 235 200
-4.475 -13.172 2.049 141 139 116
-4.429 -13.160 2.048 197 194 175
-4.409 -13.130 2.048 102 103 89
-4.396 -13.094 2.048 50 56 46
-4.381 -13.060 2.049 71 77 67
-4.367 -13.024 2.049 97 99 85
-4.350 -12.990 2.049 89 91 77
-4.332 -12.956 2.050 95 101 97
-4.311 -12.924 2.050 78 89 95
-4.293 -12.889 2.050 66 77 83
-4.274 -12.853 2.051 64 71 77
-4.254 -12.818 2.051 70 75 79
-4.233 -12.783 2.052 63 71 74
-4.211 -12.748 2.052 50 55 59
-4.188 -12.714 2.053 63 68 74
-4.164 -12.679 2.053 76 85 90
-4.137 -12.648 2.053 74 84 86
-4.107 -12.620 2.054 57 68 72
-4.078 -12.591 2.054 64 72 75
-4.050 -12.558 2.054 52 53 48
-4.021 -12.527 2.055 93 95 90
-3.987 -12.503 2.055 138 140 135
-3.953 -12.478 2.055 182 185 176
-3.921 -12.448 2.056 192 195 184
-3.885 -12.426 2.056 159 164 157
-3.851 -12.398 2.056 154 162 147
-3.815 -12.372 2.057 124 132 108
-3.777 -12.352 2.057 113 119 93
-3.738 -12.333 2.057 212 208 183
-3.700 -12.310 2.058 176 174 149
-3.661 -12.289 2.058 128 130 106
-3.620 -12.275 2.058 169 168 147
-3.579 -12.257 2.058 102 99 82
-3.537 -12.242 2.059 175 170 150
-3.495 -12.227 2.059 132 127 107
-3.452 -12.213 2.059 120 121 105
-3.409 -12.200 2.059 144 160 150
-3.365 -12.188 2.060 69 80 74
-3.322 -12.171 2.060 74 79 75
-3.277 -12.168 2.060 86 96 95
-3.232 -11.349 2.043 17 28 12
-3.167 -11.382 2.043 22 33 19
-3.105 -11.427 2.042 28 38 27
-3.044 -11.465 2.042 31 41 32
-2.984 -11.492 2.041 34 42 31
-2.927 -11.531 2.041 33 41 30
-2.871 -11.574 2.040 31 39 28
-2.818 -11.621 2.040 37 45 34
-2.768 -11.672 2.039 29 39 28
-2.720 -11.726 2.038 22 32 21
-2.677 -11.791 2.037 36 42 32
-2.642 -11.873 2.036 38 41 32
-2.634 -12.034 2.034 93 87 73
-2.603 -12.100 2.033 80 83 64
-2.560 -12.125 2.033 76 89 69
-2.523 -12.168 2.032 43 55 35
-2.497 -12.229 2.031 39 47 26
-2.492 -12.335 2.030 72 76 61
-2.532 -12.525 2.027 186 188 174
-2.469 -12.489 2.028 86 88 67
-2.419 -12.483 2.028 146 152 118
-2.370 -12.483 2.029 56 62 28
-2.350 -12.533 2.028 63 68 38
-2.389 -12.673 2.026 113 117 92
-2.447 -12.830 2.023 111 107 82
-2.311 -13.388 2.018 92 93 75
-2.303 -13.415 2.018 193 194 176
-2.297 -13.443 2.018 128 130 109
-2.287 -13.468 2.018 85 88 59
-2.276 -13.492 2.018 79 79 55
-2.270 -13.519 2.018 104 104 80
-2.260 -13.544 2.018 144 144 120
-2.242 -13.565 2.018 172 170 155
0.287 -14.885 2.059 211 210 208
0.590 -15.061 2.065 92 91 89
-1.926 -14.399 2.022 115 111 110
1.103 -15.675 2.076 170 166 157
-0.066 -15.315 2.056 96 96 88
-3.107 -15.012 2.017 137 128 99
-3.133 -15.008 2.017 124 119 99
-3.178 -15.098 2.018 121 111 84
-3.203 -15.170 2.019 121 108 76
-3.232 -15.333 2.022 129 120 79
-3.274 -15.736 2.028 75 74 30
-3.319 -15.792 2.029 102 108 64
-3.368 -15.856 2.030 82 87 46
-3.425 -15.964 2.032 172 172 138
-3.485 -16.059 2.034 66 69 40
-3.540 -16.084 2.034 70 76 50
-4.460 -21.081 2.118 156 155 137
-3.708 -16.396 2.040 141 144 113
-3.738 -16.257 2.038 105 112 68
-3.792 -16.243 2.038 62 69 36
-3.852 -16.246 2.038 58 68 33
-3.909 -16.236 2.038 111 123 75
-3.962 -16.214 2.038 94 104 69
-4.012 -16.185 2.038 90 98 75
-4.061 -16.155 2.038 58 68 34
-4.109 -16.122 2.038 78 89 49
-4.159 -16.096 2.037 44 55 15
-4.211 -16.074 2.037 59 67 26
-4.260 -16.046 2.037 123 130 88
-4.306 -16.013 2.037 87 97 47
-4.347 -15.973 2.037 90 99 56
-4.318 -15.817 2.035 103 110 76
-4.354 -15.775 2.034 116 123 90
-4.395 -15.745 2.034 138 146 105
-4.406 -15.671 2.033 123 127 113
-4.382 -15.555 2.032 155 159 136
-4.499 -15.628 2.034 124 131 79
-4.540 -15.598 2.034 133 142 99
-4.514 -15.490 2.032 220 229 198
-4.642 -15.559 2.034 132 141 94
-4.651 -15.495 2.034 76 84 37
-4.500 -15.271 2.029 174 181 140
-4.397 -15.113 2.026 146 147 105
-4.442 -15.101 2.027 127 124 83
-4.481 -15.082 2.027 96 91 59
-4.525 -15.065 2.027 138 136 98
-4.612 -15.081 2.029 82 84 34
-4.811 -15.175 2.032 108 113 55
-4.839 -15.135 2.032 119 126 74
-4.774 -15.034 2.030 99 99 63
-4.802 -14.998 2.030 109 110 79
-4.833 -14.963 2.031 93 92 71
-4.863 -14.927 2.031 67 68 54
-4.888 -14.889 2.031 73 76 59
-4.916 -14.851 2.031 86 89 68
-4.945 -14.814 2.031 95 97 73
-4.969 -14.774 2.031 75 74 53
-4.989 -14.731 2.031 66 67 51
-5.006 -14.688 2.031 49 52 33
-5.024 -14.645 2.031 101 103 82
-5.042 -14.601 2.031 105 105 79
-5.056 -14.557 2.031 93 92 71
-5.066 -14.511 2.031 58 56 44
-5.082 -14.467 2.031 69 68 47
-5.101 -14.423 2.031 101 101 77
-5.116 -14.378 2.031 74 72 49
-5.137 -14.334 2.032 95 94 64
-5.150 -14.288 2.032 104 101 70
-5.171 -14.243 2.032 116 112 77
-5.191 -14.196 2.032 104 98 64
-5.208 -14.149 2.032 113 109 71
-5.228 -14.101 2.033 96 94 45
-5.242 -14.053 2.033 98 96 47
-5.244 -14.003 2.033 91 89 41
-5.261 -13.954 2.033 120 120 70
-5.285 -13.903 2.034 115 116 59
-5.319 -13.849 2.034 126 127 67
-5.349 -13.795 2.035 138 139 73
-5.361 -13.741 2.035 123 126 59
-5.358 -13.688 2.035 127 132 68
-5.364 -13.633 2.035 105 111 49
-5.360 -13.580 2.036 78 83 27
-5.350 -13.528 2.036 97 102 46
-5.337 -13.476 2.036 117 122 64
-5.319 -13.426 2.035 104 110 50
-5.291 -13.379 2.035 81 84 31
-5.262 -13.333 2.035 114 117 62
-5.231 -13.288 2.035 122 126 67
-5.204 -13.242 2.035 78 81 26
-5.173 -13.199 2.034 105 103 52
-5.139 -13.158 2.034 90 92 43
-5.105 -13.117 2.034 85 89 38
-5.073 -13.076 2.034 128 128 74
-5.039 -13.037 2.034 98 99 39
-5.004 -12.999 2.033 101 105 44
-4.945 -12.976 2.033 125 128 75
-4.762 -13.034 2.030 88 89 49
-4.538 -13.130 2.026 104 114 89
-4.436 -13.155 2.024 122 135 115
-4.413 -13.127 2.024 94 110 97
-4.398 -13.093 2.024 144 169 166
-4.387 -13.055 2.024 144 170 171
-4.376 -13.016 2.025 107 128 113
-4.360 -12.980 2.025 94 108 85
-4.338 -12.950 2.025 93 109 106
-4.320 -12.915 2.025 86 102 101
-4.297 -12.884 2.025 93 99 97
-4.281 -12.845 2.026 83 80 73
-4.263 -12.808 2.026 81 79 67
-4.245 -12.769 2.026 125 126 112
-4.224 -12.732 2.026 169 165 153
-4.200 -12.698 2.027 193 190 175
-4.175 -12.663 2.027 164 167 150
-4.147 -12.633 2.027 118 122 108
-4.118 -12.603 2.027 113 119 109
-4.090 -12.571 2.027 116 122 112
-4.059 -12.543 2.027 111 109 96
-4.025 -12.518 2.028 131 133 119
-3.991 -12.495 2.028 135 136 120
-3.959 -12.465 2.028 115 114 93
-3.928 -12.433 2.028 239 235 208
-3.892 -12.408 2.028 170 164 142
-3.858 -12.380 2.028 120 116 87
-3.820 -12.359 2.029 108 105 70
-3.781 -12.339 2.029 117 113 84
-3.743 -12.319 2.029 192 180 154
-3.705 -12.294 2.029 184 174 147
-3.664 -12.277 2.029 181 174 148
-3.623 -12.260 2.029 202 190 168
-3.582 -12.244 2.029 189 178 158
-3.540 -12.226 2.030 214 204 179
-3.497 -12.213 2.030 188 179 150
-3.454 -12.196 2.030 204 192 170
-3.411 -12.185 2.030 201 197 172
-3.366 -12.175 2.030 255 255 234
-3.322 -12.156 2.030 255 250 230
-3.278 -12.121 2.031 250 252 231
-3.232 -11.376 2.000 23 29 19
-3.167 -11.388 2.000 31 37 25
-3.105 -11.421 2.000 25 33 20
-3.043 -11.451 2.000 27 37 28
-2.984 -11.486 2.000 31 39 28
-2.926 -11.527 2.000 24 32 21
-2.870 -11.567 2.000 25 33 22
-2.818 -11.618 2.000 31 39 28
-2.767 -11.669 2.000 36 46 35
-2.719 -11.723 2.000 40 48 37
-2.676 -11.787 2.000 27 33 21
-2.649 -11.899 2.000 37 43 31
-2.632 -12.027 2.000 116 116 106
-2.592 -12.067 2.000 35 39 24
-2.553 -12.108 2.000 39 51 29
-2.522 -12.163 2.000 68 78 54
-2.493 -12.220 2.000 55 62 44
-2.470 -12.285 2.000 63 70 54
-2.501 -12.459 2.000 96 100 85
-2.461 -12.472 2.000 105 108 89
-2.407 -12.460 2.000 75 78 57
-2.373 -12.487 2.000 87 88 70
-2.343 -12.520 2.000 90 89 68
-2.319 -12.562 2.000 75 81 47
-2.301 -12.611 2.000 93 95 58
-2.298 -12.677 2.000 80 80 46
-2.312 -13.389 2.000 109 108 78
-2.295 -13.411 2.000 104 103 75
-2.283 -13.435 2.000 54 57 30
-2.272 -13.460 2.000 73 77 50
-2.264 -13.486 2.000 85 86 52
-2.257 -13.513 2.000 55 56 22
-2.247 -13.538 2.000 55 57 36
-2.234 -13.561 2.000 66 66 56
-2.234 -13.590 2.000 132 132 124
0.186 -14.860 2.000 224 224 226
-0.839 -14.666 2.000 152 152 152
1.120 -15.682 2.000 170 166 155
-0.101 -15.300 2.000 105 98 88
-3.084 -14.995 2.000 118 107 77
-3.106 -15.022 2.000 105 97 76
-3.130 -15.036 2.000 117 112 93
-3.157 -15.013 2.000 155 148 132
-3.179 -15.076 2.000 156 147 130
-3.203 -15.160 2.000 116 107 76
-3.232 -15.415 2.000 164 154 105
-3.276 -15.801 2.000 104 106 56
-3.321 -15.825 2.000 74 75 35
-3.372 -15.907 2.000 61 66 26
-3.429 -16.005 2.000 191 189 166
-3.490 -16.101 2.000 174 173 145
-3.545 -16.119 2.000 91 93 71
-4.470 -21.140 2.000 153 151 136
-3.701 -16.364 2.000 80 86 60
-3.743 -16.279 2.000 97 108 66
-3.797 -16.263 2.000 96 105 52
-3.856 -16.261 2.000 99 107 58
-3.912 -16.247 2.000 81 89 52
-3.965 -16.224 2.000 42 51 24
-4.016 -16.196 2.000 64 72 48
-4.066 -16.168 2.000 47 56 25
-4.115 -16.137 2.000 59 70 40
-4.168 -16.115 2.000 83 95 57
-4.221 -16.096 2.000 87 97 60
-4.270 -16.067 2.000 62 73 31
-4.319 -16.037 2.000 71 83 35
-4.362 -15.999 2.000 59 71 31
-4.347 -15.864 2.000 93 104 70
-4.374 -15.808 2.000 86 93 59
-4.437 -15.807 2.000 109 115 89
-3.836 -14.818 2.000 209 215 189
-4.514 -15.646 2.000 107 115 68
-4.562 -15.624 2.000 91 103 67
-4.599 -15.588 2.000 65 76 34
-4.647 -15.565 2.000 91 102 46
-4.689 -15.534 2.000 54 67 21
-4.710 -15.482 2.000 73 81 40
-4.750 -15.449 2.000 126 130 80
-4.762 -15.391 2.000 107 106 52
-4.803 -15.359 2.000 112 113 56
-4.870 -15.348 2.000 138 136 87
-4.903 -15.308 2.000 99 98 42
-4.910 -15.248 2.000 79 83 32
-4.908 -15.184 2.000 93 99 51
-4.882 -15.106 2.000 121 124 77
-4.825 -15.013 2.000 112 113 79
-4.837 -14.965 2.000 68 67 46
-4.864 -14.928 2.000 82 83 67
-4.890 -14.890 2.000 71 74 57
-4.919 -14.853 2.000 82 85 66
-4.946 -14.814 2.000 69 72 51
-4.969 -14.774 2.000 92 95 76
-4.989 -14.731 2.000 65 67 54
-5.007 -14.688 2.000 76 79 62
-5.028 -14.646 2.000 79 83 58
-5.045 -14.602 2.000 90 94 69
-5.058 -14.558 2.000 64 63 42
-5.068 -14.512 2.000 53 54 38
-5.084 -14.467 2.000 84 85 67
-5.103 -14.424 2.000 72 71 50
-5.121 -14.379 2.000 143 138 118
-5.146 -14.336 2.000 115 109 73
-5.174 -14.292 2.000 100 95 53
-5.206 -14.247 2.000 97 96 50
-5.219 -14.199 2.000 83 82 38
-5.231 -14.151 2.000 96 95 47
-5.274 -14.104 2.000 103 104 46
-5.306 -14.054 2.000 118 119 59
-5.317 -14.003 2.000 94 94 42
-5.331 -13.952 2.000 131 134 81
-5.340 -13.900 2.000 110 110 56
-5.359 -13.846 2.000 117 116 62
-5.381 -13.792 2.000 127 125 64
-5.385 -13.738 2.000 111 113 48
-5.390 -13.683 2.000 105 111 47
-5.388 -13.629 2.000 111 115 54
-5.382 -13.576 2.000 106 111 57
-5.372 -13.523 2.000 95 100 44
-5.359 -13.470 2.000 110 116 56
-5.341 -13.420 2.000 96 101 43
-5.317 -13.371 2.000 100 104 53
-5.290 -13.323 2.000 111 117 57
-5.265 -13.276 2.000 118 125 58
-5.234 -13.231 2.000 88 93 35
-5.196 -13.190 2.000 81 84 31
-5.160 -13.149 2.000 114 116 67
-5.127 -13.107 2.000 98 100 53
-5.095 -13.066 2.000 108 110 61
-5.061 -13.026 2.000 92 95 42
-5.030 -12.985 2.000 76 79 26
-4.989 -12.950 2.000 104 107 54
-4.848 -12.980 2.000 139 142 89
-4.715 -13.012 2.000 99 113 62
-4.449 -13.146 2.000 114 130 94
-4.421 -13.122 2.000 141 155 138
-4.403 -13.089 2.000 89 108 89
-4.394 -13.050 2.000 91 109 95
-4.382 -13.011 2.000 109 126 118
-4.368 -12.974 2.000 92 108 105
-4.350 -12.939 2.000 155 170 165
-4.337 -12.898 2.000 122 135 118
-4.321 -12.859 2.000 111 119 98
-4.299 -12.826 2.000 138 140 116
-4.277 -12.791 2.000 134 134 110
-4.255 -12.757 2.000 141 142 128
-4.233 -12.720 2.000 130 129 108
-4.211 -12.683 2.000 120 119 89
-4.186 -12.648 2.000 150 148 125
-4.155 -12.621 2.000 122 121 103
-4.125 -12.592 2.000 123 120 103
-4.098 -12.558 2.000 125 117 98
-4.068 -12.528 2.000 177 170 144
-4.034 -12.502 2.000 202 196 162
-4.002 -12.473 2.000 209 200 169
-4.005 -12.368 2.000 175 164 136
-4.015 -12.235 2.000 105 92 58
-3.924 -12.332 2.000 218 208 159
-3.890 -12.296 2.000 134 123 78
-3.841 -12.300 2.000 220 209 163
-3.794 -12.300 2.000 209 195 156
-3.751 -12.291 2.000 186 170 136
-3.712 -12.269 2.000 222 207 176
-3.669 -12.256 2.000 219 203 178
-3.628 -12.237 2.000 218 201 173
-3.585 -12.227 2.000 215 199 163
-3.543 -12.206 2.000 211 196 165
-3.500 -12.191 2.000 216 202 167
-3.457 -12.176 2.000 214 201 167
-3.412 -12.168 2.000 211 203 180
-3.367 -12.164 2.000 252 244 223
-3.323 -12.146 2.000 181 173 150
-3.278 -12.128 2.000 246 245 215
-3.232 -11.382 1.957 22 32 24
-3.167 -11.392 1.957 20 29 24
-3.105 -11.423 1.958 25 35 27
-3.043 -11.446 1.958 28 36 25
-2.983 -11.483 1.959 22 30 19
-2.926 -11.526 1.959 37 45 34
-2.871 -11.571 1.960 32 40 29
-2.817 -11.614 1.960 30 38 27
-2.766 -11.664 1.961 78 88 79
-2.717 -11.711 1.962 44 52 39
-2.671 -11.766 1.962 33 39 25
-2.637 -11.856 1.964 49 57 36
-2.619 -11.984 1.965 43 43 31
-2.583 -12.039 1.966 43 47 33
-2.540 -12.071 1.966 59 71 51
-2.504 -12.118 1.967 57 65 44
-2.474 -12.175 1.968 42 52 28
-2.444 -12.227 1.968 51 61 37
-2.421 -12.290 1.969 41 49 25
-2.442 -12.435 1.971 173 179 153
-2.423 -12.490 1.972 173 180 149
-2.351 -12.449 1.971 74 78 53
-2.321 -12.484 1.971 64 66 42
-2.298 -12.530 1.971 96 103 72
-2.278 -12.576 1.972 48 59 29
-2.273 -12.643 1.973 49 58 27
-2.363 -12.832 1.976 66 69 38
-2.347 -13.380 1.982 96 94 73
-2.314 -13.390 1.982 76 69 51
-2.296 -13.411 1.982 101 94 78
-2.286 -13.437 1.982 41 38 23
-2.279 -13.464 1.982 59 60 46
-2.269 -13.489 1.982 53 51 39
-2.261 -13.515 1.982 65 62 47
-2.250 -13.539 1.982 81 80 62
-2.250 -13.568 1.982 131 133 109
0.717 -14.890 1.934 124 125 127
0.746 -15.000 1.933 25 28 37
0.753 -15.106 1.932 3 7 16
-1.589 -14.502 1.972 120 122 121
1.136 -15.688 1.923 173 169 160
-1.443 -14.744 1.968 116 112 109
-3.083 -15.003 1.983 132 121 91
-3.105 -15.027 1.983 105 94 72
-3.128 -15.055 1.983 109 103 81
-3.155 -15.044 1.983 110 102 83
-3.179 -15.081 1.982 132 121 101
-3.203 -15.160 1.981 135 127 91
-3.232 -15.472 1.976 125 119 69
-3.277 -15.852 1.970 91 99 48
-3.324 -15.883 1.969 93 94 54
-3.376 -15.967 1.968 130 130 92
-3.435 -16.070 1.966 115 117 77
-3.498 -16.161 1.964 88 95 44
-3.552 -16.166 1.964 55 62 31
-4.480 -21.198 1.881 151 152 144
-3.701 -16.363 1.961 137 144 113
-3.747 -16.298 1.962 85 95 43
-3.803 -16.284 1.962 100 112 48
-3.861 -16.280 1.961 89 98 41
-3.916 -16.261 1.961 87 99 53
-3.970 -16.240 1.961 51 63 25
-4.023 -16.214 1.962 81 92 58
-4.074 -16.187 1.962 81 93 57
-4.125 -16.160 1.962 60 73 29
-4.177 -16.137 1.962 72 86 33
-4.226 -16.107 1.962 85 96 62
-4.275 -16.077 1.962 77 86 65
-4.323 -16.045 1.962 85 95 60
-4.366 -16.006 1.962 69 83 48
-4.402 -15.957 1.963 47 60 32
-4.417 -15.875 1.964 93 100 69
-4.443 -15.817 1.964 51 57 31
-3.992 -15.084 1.978 124 133 106
-4.481 -15.689 1.966 95 103 64
-4.539 -15.678 1.965 89 98 43
-4.589 -15.658 1.965 63 76 20
-4.636 -15.631 1.965 130 138 87
-4.679 -15.601 1.965 117 121 70
-4.713 -15.559 1.965 108 118 66
-4.739 -15.511 1.965 56 67 24
-4.780 -15.478 1.965 88 96 49
-4.837 -15.459 1.965 116 121 67
-4.879 -15.424 1.964 112 120 63
-4.899 -15.372 1.965 93 98 57
-4.911 -15.314 1.965 110 112 63
-4.840 -15.197 1.967 69 69 33
-4.783 -15.096 1.969 98 97 66
-4.807 -15.056 1.969 128 128 90
-4.825 -15.013 1.969 91 91 63
-4.843 -14.969 1.969 78 77 59
-4.867 -14.930 1.969 66 67 53
-4.892 -14.891 1.969 53 55 44
-4.920 -14.853 1.969 54 56 45
