ply
format ascii 1.0
element vertex 1344
property float x
property float y
property float z
property uchar red
property uchar green
property uchar blue
end_header
-46.055 -27.382 -14.946 173 167 153
-45.940 -27.465 -14.913 179 173 161
-45.835 -27.561 -14.845 184 182 169
-45.747 -27.680 -14.704 131 129 114
-45.671 -27.811 -14.521 174 171 156
-45.608 -27.953 -14.301 155 153 138
-45.600 -28.158 -13.844 119 114 95
-45.533 -28.283 -13.689 146 140 124
-45.436 -28.370 -13.688 142 136 120
-45.337 -28.455 -13.702 147 141 127
-45.238 -28.542 -13.722 141 135 123
-45.141 -28.630 -13.745 141 135 123
-45.046 -28.721 -13.767 144 138 126
-44.952 -28.814 -13.794 143 137 125
-44.860 -28.908 -13.824 141 137 126
-44.770 -29.005 -13.852 143 139 128
-44.682 -29.104 -13.881 138 134 123
-44.598 -29.207 -13.905 139 135 124
-44.516 -29.312 -13.929 136 132 121
-44.435 -29.417 -13.960 137 133 122
-44.358 -29.526 -13.983 137 133 124
-44.284 -29.637 -14.009 134 130 121
-44.212 -29.750 -14.035 129 124 118
-44.142 -29.864 -14.062 133 130 123
-44.074 -29.980 -14.091 130 127 120
-44.010 -30.098 -14.120 127 127 119
-43.948 -30.218 -14.146 126 127 119
-43.890 -30.340 -14.173 125 126 118
-43.833 -30.462 -14.204 123 124 116
-43.779 -30.587 -14.235 123 124 116
-43.727 -30.712 -14.270 124 124 116
-43.679 -30.840 -14.302 121 121 113
-43.633 -30.968 -14.335 120 120 112
-43.591 -31.098 -14.368 118 118 110
-43.551 -31.229 -14.402 119 119 111
-43.515 -31.362 -14.434 122 122 114
-43.484 -31.496 -14.464 119 119 111
-43.456 -31.630 -14.491 118 118 110
-43.432 -31.766 -14.519 122 123 115
-43.411 -31.902 -14.545 120 121 113
-43.393 -32.040 -14.574 119 120 112
-43.377 -32.177 -14.606 120 121 113
-43.365 -32.316 -14.635 123 126 119
-43.357 -32.454 -14.665 125 126 118
-43.352 -32.594 -14.694 115 115 105
-43.348 -32.733 -14.730 166 162 151
-43.345 -32.874 -14.774 230 224 212
-43.348 -33.014 -14.812 230 224 212
-43.360 -33.154 -14.834 229 223 211
-43.371 -33.294 -14.867 231 225 213
-43.389 -33.434 -14.888 230 226 215
-43.415 -33.572 -14.899 232 228 219
-43.443 -33.710 -14.912 199 195 186
-43.473 -33.848 -14.929 190 186 177
-43.506 -33.986 -14.951 191 188 179
-43.541 -34.123 -14.974 177 174 165
-43.578 -34.260 -15.003 153 150 141
-43.621 -34.395 -15.021 145 142 133
-43.668 -34.529 -15.040 150 148 136
-43.720 -34.661 -15.053 132 130 118
-43.774 -34.793 -15.069 154 152 140
-43.831 -34.924 -15.089 131 129 117
-43.890 -35.053 -15.109 123 121 109
-43.953 -35.182 -15.129 119 117 105
-44.019 -35.308 -15.149 118 116 104
-44.088 -35.433 -15.168 126 124 112
-44.161 -35.557 -15.187 120 120 110
-44.237 -35.678 -15.204 120 120 110
-44.317 -35.798 -15.221 118 118 108
-44.397 -35.917 -15.244 118 118 108
-44.483 -36.032 -15.258 113 113 103
-44.572 -36.146 -15.275 131 131 121
-44.662 -36.258 -15.294 115 115 105
-44.755 -36.369 -15.318 118 118 108
-44.849 -36.479 -15.344 130 130 120
-44.946 -36.586 -15.370 123 123 113
-45.046 -36.691 -15.398 116 117 109
-45.149 -36.794 -15.424 106 107 101
-45.255 -36.893 -15.445 119 120 112
-45.365 -36.989 -15.464 120 121 113
-45.476 -37.083 -15.485 118 119 111
-45.590 -37.174 -15.507 117 118 110
-45.706 -37.263 -15.528 114 115 107
-45.825 -37.349 -15.552 120 121 113
-45.945 -37.433 -15.575 119 120 112
-46.068 -37.513 -15.597 118 119 111
-46.193 -37.590 -15.619 120 121 113
-46.319 -37.665 -15.643 118 119 111
-46.448 -37.738 -15.669 119 120 112
-46.578 -37.807 -15.695 117 118 110
-46.710 -37.873 -15.720 119 120 114
-46.844 -37.936 -15.747 115 116 110
-46.979 -37.997 -15.775 123 124 118
-47.117 -38.052 -15.798 118 119 113
-47.256 -38.104 -15.821 123 124 116
-47.396 -38.154 -15.845 121 122 114
-47.538 -38.200 -15.870 125 126 118
-47.681 -38.242 -15.894 124 125 117
-47.825 -38.281 -15.919 121 122 114
-47.971 -38.317 -15.944 119 120 112
-48.117 -38.349 -15.969 118 119 111
-48.264 -38.379 -15.997 120 121 113
-48.412 -38.405 -16.025 118 119 111
-48.561 -38.427 -16.053 119 120 112
-48.711 -38.446 -16.081 119 120 112
-48.861 -38.461 -16.110 118 119 111
-49.012 -38.473 -16.140 118 119 111
-49.163 -38.481 -16.168 120 121 113
-49.315 -38.485 -16.196 124 125 117
-49.467 -38.485 -16.224 122 123 115
-49.619 -38.481 -16.252 118 118 110
-49.772 -38.474 -16.280 122 122 114
-49.924 -38.463 -16.309 128 128 120
-50.076 -38.447 -16.334 127 127 119
-50.228 -38.427 -16.357 122 122 114
-50.379 -38.403 -16.379 126 126 118
-50.530 -38.375 -16.403 130 130 122
-50.680 -38.344 -16.427 127 127 119
-50.830 -38.308 -16.449 129 129 121
-50.979 -38.269 -16.470 128 128 120
-51.127 -38.226 -16.492 131 131 123
-51.274 -38.179 -16.514 132 132 124
-51.420 -38.130 -16.539 128 128 120
-51.566 -38.077 -16.565 129 129 121
-51.710 -38.021 -16.592 129 129 121
-51.854 -37.962 -16.621 132 132 124
-51.996 -37.899 -16.649 131 128 121
-52.137 -37.832 -16.679 130 127 120
-52.277 -37.763 -16.710 132 129 122
-52.415 -37.690 -16.741 132 129 122
-52.552 -37.614 -16.772 126 126 118
-52.687 -37.534 -16.804 130 130 122
-52.821 -37.451 -16.836 129 129 121
-52.952 -37.365 -16.867 125 125 117
-53.082 -37.275 -16.898 133 131 119
-53.210 -37.182 -16.933 132 130 118
-53.336 -37.086 -16.966 135 133 121
-53.459 -36.986 -16.998 134 132 120
-53.580 -36.883 -17.030 140 133 123
-53.699 -36.778 -17.064 134 127 117
-53.816 -36.670 -17.101 138 131 121
-53.931 -36.559 -17.138 136 129 119
-54.044 -36.445 -17.175 134 127 117
-54.153 -36.328 -17.211 134 130 119
-54.260 -36.208 -17.248 133 131 119
-54.364 -36.085 -17.286 135 133 121
-54.465 -35.959 -17.321 134 130 119
-54.562 -35.830 -17.351 134 130 119
-54.655 -35.698 -17.381 140 136 125
-54.744 -35.563 -17.408 138 134 123
-54.830 -35.426 -17.436 141 137 126
-54.913 -35.286 -17.461 139 135 124
-54.991 -35.144 -17.485 133 129 118
-55.066 -34.999 -17.508 132 128 117
-55.137 -34.853 -17.529 134 132 120
-55.204 -34.704 -17.550 133 131 119
-55.267 -34.554 -17.570 130 128 116
-55.326 -34.401 -17.588 139 137 125
-55.383 -34.248 -17.611 120 121 107
-55.436 -34.093 -17.637 122 122 110
-55.487 -33.937 -17.664 121 121 109
-55.533 -33.780 -17.687 120 120 110
-55.571 -33.620 -17.701 123 123 113
-55.604 -33.459 -17.708 123 120 111
-55.634 -33.298 -17.722 126 119 111
-55.663 -33.136 -17.741 123 116 108
-55.684 -32.973 -17.752 119 115 103
-55.703 -32.809 -17.763 124 120 108
-55.716 -32.645 -17.772 117 113 101
-55.726 -32.480 -17.785 121 117 105
-55.733 -32.316 -17.799 126 122 110
-55.736 -32.151 -17.814 122 116 104
-55.733 -31.985 -17.823 136 132 121
-55.725 -31.820 -17.829 129 125 114
-55.714 -31.655 -17.840 121 114 106
-55.701 -31.491 -17.854 115 110 104
-55.685 -31.326 -17.872 116 115 111
-55.666 -31.161 -17.894 52 54 51
-55.645 -30.996 -17.923 47 51 50
-55.622 -30.831 -17.956 45 49 50
-55.596 -30.666 -17.994 39 43 44
-55.564 -30.502 -18.027 41 45 46
-55.530 -30.338 -18.065 37 43 41
-55.490 -30.176 -18.097 40 46 44
-55.445 -30.014 -18.126 38 44 42
-55.394 -29.854 -18.151 35 41 39
-55.341 -29.694 -18.181 36 42 40
-55.286 -29.534 -18.218 36 40 39
-55.232 -29.374 -18.270 32 36 35
-55.184 -29.209 -18.355 35 37 36
-55.408 -28.897 -19.363 22 28 26
-55.535 -28.621 -20.084 22 27 23
-55.466 -28.447 -20.165 79 79 71
-55.319 -28.322 -19.993 96 90 76
-55.195 -28.184 -19.908 114 110 98
-55.084 -28.039 -19.879 107 103 92
-54.968 -27.899 -19.843 107 103 91
-54.846 -27.763 -19.799 78 74 62
-54.708 -27.641 -19.705 88 79 72
-54.536 -27.551 -19.490 71 64 56
-54.275 -27.545 -18.925 48 45 38
-54.090 -27.481 -18.656 39 42 35
-53.960 -27.367 -18.616 44 45 37
-53.837 -27.248 -18.614 75 75 67
-53.714 -27.128 -18.624 92 92 84
-53.590 -27.009 -18.646 36 36 28
-53.462 -26.894 -18.662 56 57 51
-53.331 -26.781 -18.681 39 40 34
-53.196 -26.674 -18.691 68 69 63
-53.057 -26.572 -18.695 68 69 63
-52.914 -26.476 -18.691 78 78 66
-52.768 -26.385 -18.680 99 97 84
-52.620 -26.296 -18.674 102 98 86
-52.472 -26.207 -18.682 105 102 87
-52.324 -26.119 -18.699 128 122 110
-52.210 -25.963 -18.951 111 109 97
-52.124 -25.735 -19.444 148 148 136
-51.949 -25.691 -19.348 106 103 88
-51.778 -25.637 -19.294 120 112 99
-51.604 -25.596 -19.217 118 110 97
-51.429 -25.561 -19.133 126 118 105
-51.252 -25.534 -19.038 131 122 107
-51.074 -25.517 -18.928 131 122 107
-50.902 -25.484 -18.881 135 126 111
-50.736 -25.431 -18.907 135 128 110
-50.576 -25.351 -19.027 137 131 115
-51.097 -21.832 -29.488 105 107 94
-50.850 -21.723 -29.671 109 112 101
-50.599 -21.617 -29.861 108 111 100
-50.343 -21.527 -30.023 106 109 98
-50.082 -21.449 -30.167 70 73 62
-49.819 -21.382 -30.298 5 12 5
-49.551 -21.340 -30.373 14 25 21
-49.283 -21.281 -30.517 25 34 29
-49.012 -26.709 -15.448 173 140 121
-48.874 -26.707 -15.460 170 139 119
-48.737 -26.712 -15.462 165 136 118
-48.599 -26.720 -15.462 167 140 123
-48.462 -26.732 -15.462 168 139 125
-48.325 -26.748 -15.460 168 139 125
-48.189 -26.769 -15.453 173 144 130
-48.054 -26.792 -15.448 176 147 133
-47.918 -26.818 -15.446 174 146 134
-47.784 -26.845 -15.449 170 142 130
-47.649 -26.876 -15.454 180 152 140
-47.516 -26.909 -15.460 178 150 138
-47.383 -26.944 -15.470 175 145 134
-47.250 -26.983 -15.478 181 153 141
-47.119 -27.025 -15.488 180 152 140
-46.988 -27.069 -15.503 179 151 139
-46.858 -27.115 -15.519 181 152 138
-46.728 -27.164 -15.539 182 154 142
-46.601 -27.217 -15.554 182 158 146
-46.474 -27.273 -15.571 175 155 144
-46.348 -27.332 -15.588 183 164 157
-46.227 -27.399 -15.585 178 165 156
-46.117 -27.485 -15.527 171 165 153
-46.019 -27.589 -15.411 177 171 159
-45.927 -27.699 -15.282 174 171 156
-45.852 -27.829 -15.079 172 169 154
-45.788 -27.969 -14.844 161 158 143
-45.737 -28.119 -14.567 140 137 122
-45.701 -28.281 -14.243 147 141 125
-45.611 -28.373 -14.206 145 139 123
-45.510 -28.452 -14.228 144 138 122
-45.409 -28.531 -14.261 142 136 122
-45.311 -28.615 -14.290 147 141 129
-45.215 -28.701 -14.315 143 137 125
-45.122 -28.790 -14.338 143 137 125
-45.031 -28.882 -14.363 139 133 121
-44.940 -28.974 -14.394 144 140 129
-44.851 -29.069 -14.426 142 138 127
-44.765 -29.166 -14.457 139 135 124
-44.681 -29.266 -14.486 138 134 123
-44.600 -29.367 -14.516 137 133 122
-44.521 -29.472 -14.545 136 132 121
-44.445 -29.578 -14.573 134 130 121
-44.371 -29.687 -14.599 134 129 123
-44.300 -29.797 -14.629 132 127 121
-44.231 -29.909 -14.658 130 127 120
-44.165 -30.023 -14.687 127 124 117
-44.102 -30.139 -14.716 128 128 120
-44.041 -30.257 -14.745 125 126 118
-43.984 -30.376 -14.773 124 125 117
-43.928 -30.496 -14.805 124 125 117
-43.874 -30.618 -14.840 124 125 117
-43.823 -30.741 -14.878 123 123 115
-43.775 -30.866 -14.913 123 123 115
-43.730 -30.993 -14.946 121 121 113
-43.688 -31.120 -14.981 120 120 112
-43.650 -31.249 -15.016 120 120 112
-43.615 -31.379 -15.049 123 123 115
-43.583 -31.510 -15.082 122 122 114
-43.555 -31.642 -15.113 121 121 113
-43.530 -31.776 -15.143 120 121 113
-43.509 -31.910 -15.174 121 122 114
-43.491 -32.044 -15.205 123 124 116
-43.476 -32.180 -15.234 120 121 113
-43.465 -32.316 -15.264 128 129 121
-43.456 -32.452 -15.299 130 130 120
-43.448 -32.589 -15.337 229 227 215
-43.444 -32.726 -15.377 233 226 216
-43.446 -32.864 -15.407 234 228 216
-43.454 -33.001 -15.429 232 226 214
-43.462 -33.139 -15.463 229 223 211
-43.476 -33.276 -15.488 229 223 211
-43.493 -33.413 -15.513 227 220 210
-43.514 -33.550 -15.538 230 223 213
-43.539 -33.686 -15.560 235 228 218
-43.568 -33.822 -15.580 232 225 215
-43.600 -33.957 -15.603 226 222 211
-43.635 -34.092 -15.625 227 223 212
-43.673 -34.226 -15.647 232 228 217
-43.716 -34.358 -15.665 227 223 212
-43.763 -34.490 -15.682 221 217 205
-43.813 -34.620 -15.698 220 216 204
-43.866 -34.750 -15.718 223 219 207
-43.920 -34.879 -15.742 205 201 189
-43.980 -35.005 -15.760 211 207 195
-44.041 -35.132 -15.783 211 207 195
-44.106 -35.256 -15.801 219 215 203
-44.175 -35.379 -15.820 224 220 208
-44.246 -35.500 -15.842 226 223 214
-44.320 -35.620 -15.862 222 219 210
-44.398 -35.738 -15.878 218 215 206
-44.479 -35.853 -15.897 216 213 204
-44.562 -35.968 -15.917 220 217 208
-44.649 -36.079 -15.933 219 216 207
-44.738 -36.189 -15.953 225 222 213
-44.831 -36.296 -15.967 216 213 204
-44.927 -36.400 -15.979 186 184 172
-45.025 -36.504 -15.997 138 135 126
-45.124 -36.605 -16.019 119 119 111
-45.226 -36.705 -16.042 124 125 117
-45.330 -36.802 -16.063 120 121 113
-45.438 -36.895 -16.080 120 121 113
-45.548 -36.986 -16.097 122 123 115
-45.660 -37.075 -16.116 120 121 113
-45.775 -37.161 -16.136 121 122 114
-45.891 -37.245 -16.158 121 122 114
-46.009 -37.326 -16.180 117 118 110
-46.129 -37.405 -16.204 115 116 108
-46.251 -37.480 -16.226 116 117 109
-46.375 -37.553 -16.251 120 121 113
-46.501 -37.624 -16.278 127 128 120
-46.629 -37.692 -16.305 113 114 106
-46.758 -37.757 -16.332 111 112 106
-46.889 -37.819 -16.359 126 127 121
-47.022 -37.877 -16.384 118 119 113
-47.157 -37.931 -16.405 118 119 113
-47.293 -37.981 -16.426 120 121 113
-47.431 -38.029 -16.450 122 123 115
-47.570 -38.074 -16.475 123 124 116
-47.710 -38.116 -16.501 122 123 115
-47.851 -38.154 -16.528 119 120 112
-47.993 -38.189 -16.555 120 121 113
-48.136 -38.221 -16.581 118 119 111
-48.280 -38.250 -16.609 120 121 113
-48.425 -38.275 -16.637 118 119 111
-48.571 -38.296 -16.665 118 119 111
-48.717 -38.314 -16.693 121 122 114
-48.864 -38.329 -16.720 120 121 113
-49.012 -38.340 -16.750 119 120 112
-49.160 -38.347 -16.778 118 119 111
-49.308 -38.350 -16.805 116 117 109
-49.457 -38.350 -16.831 119 120 112
-49.606 -38.346 -16.858 118 118 110
-49.755 -38.338 -16.887 120 120 112
-49.904 -38.328 -16.917 122 122 114
-50.052 -38.312 -16.941 124 124 116
-50.201 -38.292 -16.963 123 123 115
-50.349 -38.267 -16.985 126 126 118
-50.496 -38.240 -17.009 123 123 115
-50.643 -38.210 -17.035 123 123 115
-50.790 -38.175 -17.058 124 124 116
-50.935 -38.137 -17.081 125 125 117
-51.080 -38.095 -17.104 128 128 120
-51.224 -38.049 -17.127 128 128 120
-51.367 -38.001 -17.152 128 128 120
-51.509 -37.948 -17.176 129 129 121
-51.650 -37.893 -17.202 129 129 121
-51.790 -37.835 -17.230 131 131 123
-51.929 -37.772 -17.257 130 127 120
-52.067 -37.707 -17.287 131 128 121
-52.203 -37.639 -17.317 134 131 124
-52.338 -37.567 -17.346 129 126 119
-52.470 -37.491 -17.374 124 124 116
-52.602 -37.413 -17.404 127 127 119
-52.732 -37.331 -17.434 130 130 122
-52.859 -37.245 -17.463 128 128 120
-52.985 -37.156 -17.491 134 131 122
-53.109 -37.065 -17.522 129 127 115
-53.231 -36.971 -17.553 133 131 119
-53.350 -36.872 -17.581 132 130 118
-53.468 -36.771 -17.611 136 132 121
-53.583 -36.668 -17.644 135 131 120
-53.697 -36.562 -17.680 136 132 121
-53.809 -36.454 -17.719 135 131 120
-53.919 -36.343 -17.756 138 131 121
-54.026 -36.228 -17.793 134 130 119
-54.130 -36.111 -17.832 134 132 120
-54.232 -35.992 -17.872 136 134 122
-54.331 -35.870 -17.910 134 132 120
-54.426 -35.744 -17.946 133 131 119
-54.518 -35.616 -17.979 136 134 122
-54.605 -35.484 -18.006 137 135 123
-54.690 -35.350 -18.036 131 129 117
-54.770 -35.214 -18.064 134 132 120
-54.849 -35.076 -18.096 131 129 117
-54.924 -34.936 -18.128 133 131 119
-54.996 -34.794 -18.159 133 131 119
-55.064 -34.650 -18.187 132 130 118
-55.125 -34.503 -18.207 129 127 115
-55.181 -34.354 -18.220 132 130 118
-55.237 -34.204 -18.247 131 129 116
-55.293 -34.054 -18.282 130 128 115
-55.346 -33.902 -18.321 129 127 115
-55.391 -33.748 -18.347 123 120 111
-55.426 -33.591 -18.355 121 121 109
-55.457 -33.434 -18.357 124 122 110
-55.484 -33.276 -18.363 122 120 108
-55.511 -33.117 -18.379 123 119 108
-55.531 -32.958 -18.386 124 122 110
-55.546 -32.798 -18.390 126 124 112
-55.557 -32.637 -18.394 124 122 110
-55.565 -32.476 -18.400 127 125 113
-55.568 -32.316 -18.406 129 125 113
-55.569 -32.155 -18.413 130 124 112
-55.564 -31.994 -18.416 139 133 121
-55.553 -31.833 -18.414 134 128 116
-55.539 -31.673 -18.414 123 117 105
-55.523 -31.513 -18.418 122 118 107
-55.506 -31.352 -18.432 120 120 110
-55.488 -31.192 -18.457 56 57 51
-55.468 -31.031 -18.486 52 57 53
-55.445 -30.871 -18.519 54 58 57
-55.419 -30.711 -18.556 50 54 53
-55.388 -30.551 -18.589 61 65 64
-55.355 -30.392 -18.629 52 58 56
-55.317 -30.233 -18.665 46 52 50
-55.275 -30.075 -18.702 43 49 47
-55.227 -29.918 -18.734 43 49 47
-55.177 -29.762 -18.768 33 39 37
-55.124 -29.606 -18.807 37 41 40
-55.070 -29.451 -18.855 23 27 26
-55.016 -29.293 -18.920 64 66 65
-55.002 -29.114 -19.140 76 82 78
-55.161 -28.832 -19.994 24 28 27
-55.175 -28.622 -20.362 44 43 39
-55.052 -28.491 -20.249 66 62 51
-54.946 -28.351 -20.211 85 79 65
-54.833 -28.216 -20.158 127 119 106
-54.713 -28.087 -20.091 109 101 88
-54.580 -27.971 -19.980 96 88 75
-54.439 -27.862 -19.851 101 91 79
-54.265 -27.784 -19.591 120 112 101
-54.085 -27.718 -19.308 114 108 96
-53.946 -27.618 -19.203 67 65 52
-53.823 -27.504 -19.176 66 62 50
-53.705 -27.386 -19.182 112 106 94
-53.587 -27.268 -19.202 116 110 98
-53.468 -27.150 -19.233 120 114 102
-53.346 -27.035 -19.262 104 98 86
-53.220 -26.924 -19.286 115 108 98
-53.088 -26.820 -19.295 123 116 106
-52.953 -26.720 -19.301 125 118 108
-52.815 -26.624 -19.305 129 125 113
-52.674 -26.532 -19.304 84 78 66
-52.532 -26.443 -19.307 100 92 79
-52.388 -26.356 -19.317 114 105 90
-52.243 -26.272 -19.329 124 117 99
-52.108 -26.166 -19.429 113 109 97
-52.003 -25.993 -19.769 50 48 36
-51.846 -25.923 -19.764 115 109 95
-51.682 -25.870 -19.713 97 90 74
-51.519 -25.817 -19.678 98 91 75
-51.353 -25.772 -19.629 124 117 101
-51.186 -25.734 -19.574 127 120 104
-51.016 -25.710 -19.485 132 125 109
-50.848 -25.683 -19.420 137 130 114
-50.680 -25.655 -19.370 151 145 129
-50.492 -25.725 -19.022 161 158 141
-50.978 -22.429 -29.371 107 109 98
-50.771 -22.180 -30.016 108 111 102
-50.525 -22.118 -30.087 107 110 101
-50.276 -22.067 -30.137 105 108 99
-50.030 -21.979 -30.325 81 84 73
-49.779 -21.921 -30.440 7 14 7
-49.525 -21.873 -30.540 18 29 25
-49.270 -21.815 -30.692 24 33 28
-49.012 -26.842 -16.043 171 140 122
-48.878 -26.840 -16.056 171 142 124
-48.743 -26.844 -16.060 172 145 128
-48.609 -26.851 -16.062 168 142 127
-48.475 -26.863 -16.062 176 146 135
-48.342 -26.879 -16.056 171 141 130
-48.209 -26.900 -16.048 173 143 132
-48.076 -26.922 -16.046 174 144 133
-47.944 -26.947 -16.045 174 146 134
-47.812 -26.974 -16.048 177 149 137
-47.681 -27.003 -16.053 178 150 138
-47.551 -27.035 -16.060 174 146 134
-47.421 -27.069 -16.073 174 146 135
-47.291 -27.107 -16.083 173 146 135
-47.163 -27.148 -16.094 173 146 135
-47.035 -27.191 -16.108 176 152 140
-46.908 -27.236 -16.125 171 148 134
-46.781 -27.282 -16.152 171 149 136
-46.654 -27.330 -16.180 179 165 152
-46.528 -27.381 -16.210 182 174 161
-46.411 -27.448 -16.193 181 171 159
-46.303 -27.533 -16.119 179 169 157
-46.206 -27.634 -15.993 190 180 168
-46.119 -27.747 -15.828 175 169 155
-46.038 -27.865 -15.646 175 169 153
-45.975 -28.003 -15.389 185 179 163
-45.918 -28.144 -15.121 158 152 136
-45.865 -28.283 -14.861 153 147 131
-45.788 -28.388 -14.751 150 145 126
-45.691 -28.465 -14.762 148 142 126
-45.591 -28.541 -14.793 144 138 122
-45.492 -28.618 -14.830 144 138 124
-45.395 -28.699 -14.861 143 137 125
-45.302 -28.783 -14.888 143 137 125
-45.212 -28.871 -14.908 140 134 122
-45.122 -28.960 -14.935 142 136 124
-45.034 -29.051 -14.963 140 136 125
-44.949 -29.145 -14.991 138 134 123
-44.865 -29.240 -15.020 136 132 121
-44.784 -29.338 -15.050 133 129 118
-44.704 -29.437 -15.078 132 128 117
-44.627 -29.539 -15.109 135 131 120
-44.552 -29.643 -15.140 133 129 120
-44.481 -29.749 -15.169 130 125 119
-44.411 -29.856 -15.197 130 125 119
-44.343 -29.966 -15.230 129 126 119
-44.279 -30.077 -15.260 130 127 120
-44.215 -30.189 -15.296 126 126 118
-44.157 -30.304 -15.325 125 126 118
-44.098 -30.420 -15.364 122 123 115
-44.044 -30.538 -15.393 126 127 119
-43.991 -30.657 -15.432 123 124 116
-43.941 -30.777 -15.469 123 123 115
-43.895 -30.900 -15.502 124 124 116
-43.852 -31.023 -15.536 126 126 118
-43.812 -31.148 -15.569 122 122 114
-43.774 -31.274 -15.605 125 125 117
-43.740 -31.401 -15.640 121 121 113
-43.709 -31.529 -15.674 125 125 117
-43.681 -31.658 -15.706 121 121 113
-43.658 -31.788 -15.736 119 119 111
-43.637 -31.919 -15.767 119 119 111
-43.620 -32.051 -15.798 122 122 114
-43.606 -32.183 -15.825 127 127 119
-43.594 -32.316 -15.860 116 114 102
-43.579 -32.449 -15.916 230 228 215
-43.575 -32.583 -15.944 227 223 212
-43.575 -32.717 -15.973 231 224 214
-43.576 -32.851 -16.006 230 224 212
-43.584 -32.985 -16.030 226 220 208
-43.595 -33.119 -16.053 227 221 209
-43.608 -33.253 -16.082 225 219 207
-43.624 -33.387 -16.110 227 220 210
-43.645 -33.521 -16.134 231 224 214
-43.670 -33.654 -16.155 235 228 218
-43.698 -33.786 -16.177 235 228 218
-43.728 -33.918 -16.203 230 226 215
-43.762 -34.050 -16.227 231 227 216
-43.799 -34.181 -16.251 228 224 213
-43.840 -34.311 -16.276 227 223 212
-43.885 -34.439 -16.293 226 222 210
-43.934 -34.566 -16.309 223 219 207
-43.986 -34.693 -16.328 216 212 200
-44.040 -34.818 -16.349 223 219 207
-44.097 -34.943 -16.371 229 225 213
-44.158 -35.065 -16.390 227 223 211
-44.222 -35.186 -16.408 225 221 209
-44.290 -35.306 -16.425 229 225 213
-44.360 -35.424 -16.442 229 225 214
-44.434 -35.540 -16.460 228 224 213
-44.511 -35.654 -16.474 223 219 208
-44.590 -35.766 -16.490 224 220 209
-44.673 -35.877 -16.506 218 214 203
-44.758 -35.985 -16.519 213 209 198
-44.846 -36.092 -16.536 216 212 201
-44.936 -36.196 -16.554 219 215 204
-45.029 -36.299 -16.569 219 215 203
-45.124 -36.399 -16.587 227 223 212
-45.221 -36.498 -16.607 130 127 118
-45.320 -36.595 -16.631 124 124 116
-45.423 -36.689 -16.652 124 125 117
-45.528 -36.779 -16.666 125 126 118
-45.636 -36.867 -16.681 108 109 101
-45.746 -36.953 -16.697 113 114 106
-45.858 -37.036 -16.716 123 124 116
-45.971 -37.118 -16.738 117 118 110
-46.087 -37.196 -16.758 116 117 109
-46.204 -37.272 -16.781 118 119 111
-46.323 -37.346 -16.802 119 120 112
-46.444 -37.417 -16.826 114 115 107
-46.567 -37.486 -16.854 114 115 107
-46.691 -37.552 -16.881 118 119 111
-46.817 -37.615 -16.908 118 119 113
-46.945 -37.674 -16.934 119 120 114
-47.075 -37.730 -16.956 117 118 112
-47.206 -37.782 -16.977 117 118 112
-47.339 -37.830 -16.997 119 120 112
-47.473 -37.876 -17.019 120 121 113
-47.608 -37.919 -17.044 119 120 112
-47.745 -37.960 -17.070 123 124 116
-47.882 -37.997 -17.097 119 120 112
-48.020 -38.032 -17.125 118 119 111
-48.160 -38.062 -17.152 115 116 108
-48.300 -38.089 -17.178 118 119 111
-48.441 -38.113 -17.204 118 119 111
-48.583 -38.133 -17.230 125 126 118
-48.725 -38.150 -17.257 120 121 113
-48.868 -38.164 -17.284 119 120 112
-49.012 -38.174 -17.312 121 122 114
-49.156 -38.180 -17.339 120 121 113
-49.300 -38.182 -17.364 119 120 112
-49.445 -38.181 -17.389 117 118 110
-49.589 -38.176 -17.414 119 119 111
-49.734 -38.169 -17.441 123 123 115
-49.879 -38.157 -17.468 121 121 113
-50.023 -38.141 -17.490 122 122 114
-50.167 -38.121 -17.514 123 123 115
-50.311 -38.099 -17.540 122 122 114
-50.454 -38.073 -17.567 129 129 121
-50.597 -38.044 -17.595 123 123 115
-50.740 -38.011 -17.620 126 126 118
-50.881 -37.974 -17.645 121 121 113
-51.022 -37.934 -17.672 124 124 116
-51.163 -37.891 -17.698 123 123 115
-51.302 -37.844 -17.725 123 123 115
-51.440 -37.793 -17.751 126 126 118
-51.577 -37.739 -17.779 127 127 119
-51.714 -37.683 -17.810 128 128 120
-51.849 -37.623 -17.840 123 123 115
-51.983 -37.561 -17.872 126 126 118
-52.116 -37.494 -17.902 126 126 118
-52.246 -37.423 -17.930 126 126 118
-52.375 -37.349 -17.956 119 119 111
-52.502 -37.272 -17.983 124 124 116
-52.628 -37.192 -18.012 126 126 118
-52.752 -37.108 -18.040 123 123 115
-52.873 -37.021 -18.066 127 127 117
-52.993 -36.931 -18.094 125 125 115
-53.111 -36.838 -18.121 128 128 118
-53.226 -36.742 -18.147 130 130 120
-53.340 -36.643 -18.176 134 131 122
-53.452 -36.543 -18.210 137 134 125
-53.564 -36.441 -18.251 130 127 118
-53.673 -36.337 -18.294 133 130 121
-53.780 -36.229 -18.335 136 129 119
-53.885 -36.118 -18.376 135 131 120
-53.986 -36.005 -18.415 135 133 121
-54.085 -35.889 -18.455 134 132 120
-54.181 -35.770 -18.495 132 130 118
-54.274 -35.648 -18.532 133 131 119
-54.364 -35.523 -18.568 132 130 118
-54.449 -35.396 -18.601 132 130 118
-54.533 -35.267 -18.637 134 132 120
-54.613 -35.135 -18.670 133 131 119
-54.690 -35.001 -18.707 133 131 119
-54.766 -34.866 -18.748 129 127 115
-54.840 -34.730 -18.795 131 129 117
-54.910 -34.591 -18.838 130 128 116
-54.972 -34.448 -18.867 136 134 122
-55.024 -34.302 -18.873 133 131 119
-55.071 -34.153 -18.871 132 128 117
-55.114 -34.004 -18.872 136 132 121
-55.159 -33.855 -18.890 133 129 120
-55.196 -33.704 -18.892 135 130 124
-55.225 -33.551 -18.883 134 134 124
-55.252 -33.398 -18.877 122 122 110
-55.280 -33.245 -18.889 126 128 115
-55.308 -33.092 -18.912 125 125 113
-55.330 -32.938 -18.927 124 124 114
-55.345 -32.783 -18.934 125 125 117
-55.357 -32.627 -18.943 123 123 115
-55.370 -32.472 -18.966 120 120 112
-55.375 -32.316 -18.977 128 124 113
-55.376 -32.159 -18.985 131 127 116
-55.374 -32.003 -18.999 120 116 105
-55.365 -31.847 -19.000 121 117 106
-55.353 -31.691 -19.004 122 120 107
-55.339 -31.535 -19.015 123 123 111
-55.323 -31.379 -19.032 114 116 103
-55.304 -31.224 -19.051 115 117 106
-55.282 -31.068 -19.076 119 121 116
-55.259 -30.913 -19.108 72 74 69
-55.234 -30.757 -19.144 58 60 55
-55.203 -30.602 -19.177 61 63 58
-55.172 -30.447 -19.220 84 86 81
-55.138 -30.292 -19.266 96 98 93
-55.098 -30.138 -19.310 114 116 113
-55.053 -29.985 -19.345 108 110 109
-55.005 -29.833 -19.384 61 67 65
-54.955 -29.681 -19.431 39 43 42
-54.904 -29.529 -19.488 77 81 80
-54.857 -29.373 -19.573 71 73 72
-54.834 -29.204 -19.762 62 67 63
-54.861 -29.002 -20.162 57 61 62
-54.881 -28.798 -20.555 23 25 24
-54.818 -28.639 -20.653 40 40 32
-54.714 -28.506 -20.606 77 70 60
-54.600 -28.380 -20.530 75 68 58
-54.479 -28.261 -20.438 78 71 61
-54.346 -28.153 -20.305 80 73 63
-54.205 -28.054 -20.147 117 109 96
-54.061 -27.960 -19.980 123 115 102
-53.924 -27.863 -19.855 123 117 103
-53.801 -27.756 -19.800 124 121 106
-53.685 -27.643 -19.785 121 115 103
-53.573 -27.525 -19.804 121 114 104
-53.459 -27.409 -19.832 114 107 97
-53.346 -27.292 -19.871 117 110 100
-53.229 -27.178 -19.912 118 108 98
-53.108 -27.067 -19.949 121 111 101
-52.981 -26.964 -19.965 122 112 102
-52.850 -26.867 -19.971 121 111 101
-52.714 -26.775 -19.969 118 111 101
-52.576 -26.687 -19.961 116 112 103
-52.435 -26.604 -19.952 121 114 104
-52.294 -26.521 -19.953 123 115 104
-52.152 -26.442 -19.956 141 134 118
-52.013 -26.354 -20.000 159 155 143
-51.889 -26.232 -20.186 125 125 115
-51.759 -26.119 -20.343 84 77 67
-51.711 -25.800 -21.248 102 93 84
-51.533 -25.781 -21.088 101 94 84
-51.360 -25.754 -20.975 120 113 103
-51.217 -25.641 -21.171 113 106 96
-51.078 -25.505 -21.460 103 99 88
-50.926 -25.399 -21.657 105 103 91
-50.740 -25.417 -21.446 107 107 95
-50.509 -25.651 -20.518 97 99 86
-50.791 -23.372 -28.062 105 108 99
-50.698 -22.600 -30.505 107 110 103
-50.459 -22.563 -30.501 108 111 104
-50.218 -22.537 -30.479 103 106 99
-49.982 -22.470 -30.613 100 103 92
-49.741 -22.427 -30.686 14 21 14
-49.500 -22.388 -30.765 16 27 23
-49.257 -22.350 -30.861 22 31 26
-49.012 -27.000 -16.615 169 140 124
-48.881 -26.998 -16.628 172 145 128
-48.751 -27.003 -16.627 169 143 128
-48.621 -27.011 -16.625 173 147 134
-48.491 -27.022 -16.627 172 144 133
-48.361 -27.037 -16.625 178 150 139
-48.232 -27.055 -16.622 173 145 134
-48.103 -27.077 -16.620 177 149 138
-47.975 -27.100 -16.620 180 152 140
-47.847 -27.127 -16.621 182 154 142
-47.720 -27.156 -16.624 176 148 136
-47.593 -27.187 -16.636 176 148 136
-47.466 -27.218 -16.654 177 149 138
-47.340 -27.253 -16.671 176 149 140
-47.214 -27.291 -16.689 168 146 135
-47.089 -27.330 -16.713 168 150 138
-46.964 -27.370 -16.745 183 170 154
-46.838 -27.412 -16.783 171 162 147
-46.718 -27.465 -16.790 178 170 157
-46.605 -27.534 -16.744 160 157 142
-46.501 -27.617 -16.656 159 156 139
-46.404 -27.712 -16.528 160 151 136
-46.316 -27.818 -16.363 182 170 156
-46.236 -27.932 -16.168 173 166 150
-46.165 -28.055 -15.944 178 171 153
-46.112 -28.198 -15.634 165 158 140
-46.055 -28.328 -15.383 155 148 130
-45.977 -28.426 -15.278 151 144 126
-45.884 -28.504 -15.268 152 147 128
-45.786 -28.576 -15.295 144 138 122
-45.690 -28.650 -15.324 144 138 122
-45.595 -28.727 -15.351 144 138 124
-45.503 -28.806 -15.380 145 139 127
-45.412 -28.888 -15.406 143 137 125
-45.324 -28.973 -15.431 140 134 122
-45.237 -29.059 -15.459 139 133 121
-45.152 -29.148 -15.487 136 132 121
-45.069 -29.238 -15.516 136 132 121
-44.988 -29.331 -15.546 133 129 118
-44.909 -29.426 -15.576 133 129 118
-44.832 -29.522 -15.606 136 132 121
-44.757 -29.621 -15.635 132 128 117
-44.685 -29.722 -15.664 133 129 120
-44.616 -29.825 -15.693 132 127 121
-44.549 -29.930 -15.723 130 125 119
-44.483 -30.036 -15.755 127 124 117
-44.420 -30.144 -15.786 131 128 121
-44.360 -30.253 -15.820 127 127 119
-44.302 -30.364 -15.854 124 125 117
-44.246 -30.477 -15.888 123 124 116
-44.193 -30.591 -15.924 125 126 118
-44.142 -30.707 -15.962 123 124 116
-44.093 -30.823 -16.000 123 123 115
-44.046 -30.941 -16.045 124 124 116
-44.003 -31.061 -16.081 125 125 117
-43.964 -31.182 -16.119 122 122 114
-43.926 -31.304 -16.159 120 120 112
-43.892 -31.427 -16.196 123 123 115
-43.862 -31.552 -16.233 122 122 114
-43.834 -31.677 -16.270 120 120 112
-43.810 -31.803 -16.305 122 119 112
-43.789 -31.930 -16.339 125 122 115
-43.771 -32.058 -16.375 132 129 122
-43.756 -32.187 -16.410 172 169 162
-43.743 -32.316 -16.451 228 225 210
-43.734 -32.445 -16.487 221 215 201
-43.731 -32.575 -16.515 230 224 212
-43.731 -32.705 -16.543 224 220 209
-43.736 -32.835 -16.565 225 219 207
-43.743 -32.965 -16.590 230 224 212
-43.752 -33.096 -16.622 230 224 212
-43.764 -33.226 -16.653 233 227 215
-43.781 -33.356 -16.676 235 228 218
-43.802 -33.485 -16.698 218 211 201
-43.826 -33.615 -16.723 210 203 193
-43.853 -33.743 -16.745 223 216 206
-43.884 -33.871 -16.765 229 225 214
-43.918 -33.998 -16.786 227 223 212
-43.955 -34.125 -16.808 223 219 208
-43.996 -34.251 -16.828 227 223 212
-44.041 -34.375 -16.843 226 222 210
-44.089 -34.498 -16.856 231 227 215
-44.140 -34.620 -16.871 227 223 211
-44.193 -34.741 -16.892 228 224 212
-44.249 -34.862 -16.914 226 222 210
-44.307 -34.981 -16.936 226 222 210
-44.368 -35.099 -16.958 234 230 218
-44.434 -35.215 -16.977 231 227 215
-44.502 -35.329 -16.995 223 217 205
-44.573 -35.442 -17.015 228 222 210
-44.647 -35.553 -17.032 227 221 209
-44.723 -35.663 -17.051 229 223 211
-44.803 -35.770 -17.066 225 219 207
-44.886 -35.874 -17.080 227 221 209
-44.971 -35.978 -17.096 228 222 210
-45.059 -36.079 -17.112 224 218 206
-45.149 -36.179 -17.131 218 212 200
-45.241 -36.277 -17.153 222 218 206
-45.336 -36.372 -17.170 224 220 209
-45.432 -36.466 -17.193 230 227 218
-45.532 -36.556 -17.210 121 122 114
-45.635 -36.643 -17.222 121 122 114
-45.740 -36.728 -17.235 124 125 117
-45.847 -36.809 -17.248 121 122 114
-45.956 -36.889 -17.263 120 121 113
-46.066 -36.968 -17.283 120 121 113
-46.179 -37.043 -17.301 119 120 112
-46.292 -37.117 -17.323 117 118 110
-46.408 -37.187 -17.344 121 122 114
-46.526 -37.255 -17.366 112 113 105
-46.644 -37.321 -17.392 121 122 114
-46.765 -37.385 -17.417 119 120 112
-46.887 -37.445 -17.441 120 121 115
-47.011 -37.502 -17.467 116 117 111
-47.137 -37.556 -17.490 118 119 113
-47.264 -37.606 -17.512 118 119 113
-47.393 -37.653 -17.533 116 117 109
-47.523 -37.698 -17.556 117 118 110
-47.653 -37.739 -17.580 124 125 117
-47.785 -37.778 -17.606 123 124 116
-47.918 -37.815 -17.635 120 121 113
-48.052 -37.848 -17.665 117 118 110
-48.187 -37.878 -17.693 119 120 112
-48.323 -37.904 -17.720 119 120 112
-48.459 -37.927 -17.746 116 117 109
-48.597 -37.947 -17.775 118 119 111
-48.734 -37.965 -17.806 118 119 111
-48.873 -37.978 -17.834 118 119 111
-49.012 -37.988 -17.863 118 119 111
-49.151 -37.993 -17.889 115 116 108
-49.291 -37.995 -17.912 114 115 107
-49.431 -37.993 -17.936 117 118 110
-49.571 -37.988 -17.959 122 122 114
-49.710 -37.979 -17.982 109 109 101
-49.850 -37.967 -18.005 118 118 110
-49.990 -37.951 -18.028 117 117 109
-50.129 -37.932 -18.051 121 121 113
-50.268 -37.909 -18.076 114 114 106
-50.407 -37.884 -18.104 119 119 111
-50.545 -37.856 -18.130 119 119 111
-50.683 -37.823 -18.154 94 94 86
-50.820 -37.787 -18.178 92 92 84
-50.956 -37.749 -18.206 124 124 116
-51.092 -37.707 -18.235 126 126 118
-51.227 -37.663 -18.267 126 126 118
-51.361 -37.614 -18.297 125 125 117
-51.494 -37.562 -18.325 123 123 115
-51.625 -37.507 -18.354 127 127 119
-51.756 -37.449 -18.382 122 123 115
-51.885 -37.388 -18.414 123 124 116
-52.014 -37.324 -18.447 122 123 115
-52.140 -37.255 -18.472 124 125 117
-52.263 -37.181 -18.493 123 123 115
-52.385 -37.105 -18.512 123 123 115
-52.506 -37.027 -18.539 128 128 120
-52.625 -36.946 -18.567 125 125 117
-52.742 -36.861 -18.589 123 124 116
-52.857 -36.773 -18.613 123 124 116
-52.969 -36.682 -18.635 124 125 117
-53.080 -36.588 -18.658 126 127 119
-53.189 -36.493 -18.687 129 126 119
-53.298 -36.396 -18.725 128 125 118
-53.407 -36.299 -18.773 131 128 121
-53.515 -36.200 -18.825 129 126 119
-53.620 -36.097 -18.874 134 127 117
-53.722 -35.991 -18.922 133 129 118
-53.821 -35.882 -18.966 134 132 120
-53.918 -35.770 -19.011 133 131 119
-54.013 -35.657 -19.060 128 128 116
-54.104 -35.540 -19.106 128 128 116
-54.192 -35.420 -19.148 127 127 115
-54.276 -35.298 -19.187 128 128 116
-54.358 -35.173 -19.226 130 130 118
-54.436 -35.046 -19.264 128 128 116
-54.514 -34.918 -19.312 127 127 115
-54.590 -34.788 -19.366 129 129 117
-54.660 -34.655 -19.406 129 127 115
-54.718 -34.517 -19.416 128 126 114
-54.770 -34.376 -19.414 132 130 118
-54.817 -34.233 -19.408 136 134 122
-54.876 -34.094 -19.459 112 108 99
-59.936 -35.339 -37.690 90 83 75
-61.364 -35.410 -42.591 154 147 141
-62.121 -35.259 -45.048 214 206 203
-62.478 -34.994 -46.078 190 189 184
-62.539 -34.663 -46.078 152 153 148
-62.593 -34.330 -46.078 145 147 142
-62.397 -33.966 -45.227 153 158 152
-61.807 -33.576 -43.023 159 161 156
-61.543 -33.240 -41.999 156 157 152
-61.453 -32.927 -41.619 144 145 140
-60.702 -32.603 -38.950 128 129 124
-59.278 -32.316 -33.949 113 114 108
-57.752 -32.101 -28.613 120 121 115
-56.478 -31.949 -24.176 124 125 119
-55.942 -31.804 -22.333 106 107 101
-55.456 -31.681 -20.674 119 122 115
-55.173 -31.556 -19.738 123 124 118
-55.123 -31.409 -19.635 110 111 103
-55.108 -31.258 -19.666 117 118 110
-55.091 -31.106 -19.704 122 123 115
-55.232 -30.919 -20.325 128 129 121
-56.163 -30.524 -23.817 135 136 128
-56.229 -30.318 -24.224 142 143 135
-55.715 -30.282 -22.530 128 129 121
-54.994 -30.339 -20.062 111 112 104
-54.916 -30.203 -19.957 101 101 99
-54.869 -30.056 -19.984 85 85 87
-54.828 -29.907 -20.043 51 55 54
-54.784 -29.757 -20.109 50 54 53
-54.740 -29.606 -20.189 46 50 49
-54.706 -29.450 -20.323 58 60 59
-54.703 -29.273 -20.599 58 63 59
-54.725 -29.079 -20.992 52 56 57
-54.717 -28.896 -21.292 61 65 68
-54.636 -28.754 -21.312 61 63 60
-54.536 -28.625 -21.264 64 65 60
-54.433 -28.498 -21.219 73 72 68
-54.672 -28.118 -22.675 84 83 79
-55.459 -27.284 -26.637 74 73 69
-56.016 -26.567 -29.731 82 81 77
-56.652 -25.726 -33.330 87 84 79
-56.644 -25.398 -34.070 86 83 78
-56.040 -25.624 -31.981 87 84 79
-54.571 -26.757 -25.530 82 81 76
-53.636 -27.459 -21.482 84 81 76
-53.501 -27.363 -21.407 87 84 79
-53.898 -26.652 -24.193 91 88 83
-54.718 -25.363 -29.495 84 83 79
-55.247 -24.326 -33.489 84 83 79
-55.692 -23.309 -37.269 82 81 77
-56.306 -21.959 -42.357 78 77 73
-56.248 -21.486 -43.610 75 75 73
-56.004 -21.274 -43.768 86 86 84
-55.750 -21.073 -43.898 85 84 80
-55.567 -20.744 -44.573 90 87 82
-55.476 -20.223 -46.017 85 83 71
-55.185 -20.052 -46.078 71 74 67
-54.882 -19.904 -46.078 62 66 65
-54.576 -19.764 -46.078 58 58 58
-54.266 -19.631 -46.078 54 54 52
-53.953 -19.506 -46.078 55 55 53
-53.637 -19.389 -46.078 48 48 46
-53.319 -19.279 -46.078 51 51 49
-52.997 -19.177 -46.078 52 52 52
-52.674 -19.083 -46.078 50 50 50
-52.348 -18.998 -46.078 55 57 56
-52.020 -18.920 -46.078 44 48 47
-51.574 -19.436 -43.987 75 77 72
-50.888 -21.502 -36.434 83 85 80
-50.428 -22.771 -31.788 95 97 92
-50.156 -23.043 -30.719 100 102 97
-49.927 -23.027 -30.685 97 100 91
-49.700 -22.988 -30.752 14 21 14
-49.472 -22.948 -30.843 16 27 23
-49.243 -22.907 -30.958 19 28 23
-49.012 -27.169 -17.206 169 137 122
-48.886 -27.168 -17.217 172 143 129
-48.759 -27.172 -17.218 174 146 134
-48.633 -27.180 -17.218 175 147 136
-48.507 -27.190 -17.221 175 147 136
-48.381 -27.203 -17.226 182 152 142
-48.256 -27.219 -17.231 167 139 128
-48.131 -27.238 -17.234 178 151 140
-48.006 -27.259 -17.240 174 146 135
-47.882 -27.285 -17.243 179 152 141
-47.759 -27.313 -17.246 174 152 139
-47.636 -27.345 -17.249 163 144 130
-47.513 -27.375 -17.269 167 154 138
-47.391 -27.407 -17.292 176 164 148
-47.269 -27.444 -17.311 170 158 142
-47.149 -27.486 -17.321 152 143 126
-47.033 -27.538 -17.300 154 148 132
-46.922 -27.601 -17.247 210 207 190
-46.817 -27.674 -17.161 137 134 117
-46.715 -27.752 -17.066 130 127 110
-46.619 -27.839 -16.942 145 139 123
-46.530 -27.934 -16.794 156 149 131
-46.448 -28.039 -16.610 156 147 130
-46.374 -28.150 -16.399 160 153 135
-46.311 -28.273 -16.146 162 155 137
-46.250 -28.393 -15.904 139 132 113
-46.167 -28.479 -15.826 145 138 120
-46.075 -28.552 -15.816 145 138 122
-45.980 -28.621 -15.839 134 128 114
-45.885 -28.691 -15.865 140 134 120
-45.792 -28.763 -15.894 140 134 122
-45.701 -28.837 -15.923 139 133 121
-45.611 -28.914 -15.952 149 140 131
-45.523 -28.994 -15.978 143 134 125
-45.438 -29.076 -16.004 140 133 123
-45.353 -29.159 -16.034 139 135 124
-45.271 -29.245 -16.063 137 130 120
-45.190 -29.333 -16.092 137 130 120
-45.111 -29.423 -16.124 135 128 118
-45.035 -29.515 -16.155 135 128 118
-44.961 -29.608 -16.185 135 128 120
-44.888 -29.704 -16.217 135 128 122
-44.818 -29.802 -16.248 130 123 117
-44.750 -29.901 -16.282 135 128 122
-44.684 -30.002 -16.314 130 127 120
-44.621 -30.105 -16.346 125 125 117
-44.560 -30.210 -16.378 128 128 120
-44.502 -30.316 -16.412 127 127 119
-44.445 -30.424 -16.448 126 126 118
-44.391 -30.533 -16.483 122 122 114
-44.340 -30.644 -16.520 125 125 117
-44.290 -30.756 -16.560 124 124 116
-44.243 -30.869 -16.599 124 124 116
-44.199 -30.984 -16.638 121 121 113
-44.158 -31.100 -16.676 110 110 102
-44.119 -31.217 -16.715 123 123 115
-44.084 -31.335 -16.753 116 117 109
-44.051 -31.455 -16.791 117 118 110
-44.022 -31.575 -16.828 120 121 113
-43.995 -31.697 -16.865 119 120 112
-43.972 -31.819 -16.900 119 119 111
-43.952 -31.942 -16.934 120 120 112
-43.935 -32.066 -16.970 122 122 114
-43.920 -32.191 -17.008 128 128 120
-43.909 -32.316 -17.046 133 130 121
-43.900 -32.441 -17.082 125 121 112
-43.895 -32.567 -17.119 113 109 100
-43.894 -32.693 -17.154 232 229 222
-43.896 -32.820 -17.187 230 221 212
-43.901 -32.946 -17.218 236 226 217
-43.911 -33.072 -17.246 237 227 218
-43.924 -33.198 -17.271 232 222 213
-43.942 -33.324 -17.292 230 223 213
-43.963 -33.449 -17.313 223 219 208
-43.987 -33.574 -17.333 228 224 213
-44.015 -33.699 -17.351 226 222 211
-44.045 -33.822 -17.370 226 223 208
-44.079 -33.945 -17.390 230 227 212
-44.115 -34.068 -17.410 210 206 194
-44.156 -34.189 -17.425 231 227 216
-44.200 -34.309 -17.439 228 222 210
-44.246 -34.428 -17.454 239 233 221
-44.296 -34.546 -17.468 229 223 211
-44.347 -34.664 -17.490 226 220 208
-44.400 -34.781 -17.516 226 220 208
-44.457 -34.896 -17.538 228 222 210
-44.517 -35.010 -17.559 225 219 207
-44.580 -35.122 -17.577 225 219 207
-44.647 -35.232 -17.593 231 227 215
-44.716 -35.341 -17.610 219 215 203
-44.788 -35.448 -17.626 228 224 212
-44.862 -35.554 -17.646 219 215 203
-44.940 -35.658 -17.660 221 217 206
-45.020 -35.759 -17.675 227 223 212
-45.103 -35.859 -17.691 224 220 209
-45.188 -35.957 -17.707 221 217 206
-45.275 -36.053 -17.726 220 217 202
-45.363 -36.148 -17.748 218 215 200
-45.454 -36.241 -17.770 223 217 203
-45.548 -36.331 -17.790 219 213 201
-45.645 -36.419 -17.809 222 218 207
-45.745 -36.502 -17.818 220 217 208
-45.847 -36.584 -17.831 123 124 116
-45.951 -36.662 -17.838 119 122 115
-46.057 -36.738 -17.850 122 123 117
-46.164 -36.813 -17.867 131 130 125
-46.273 -36.885 -17.882 118 117 112
-46.384 -36.954 -17.896 120 120 112
-46.497 -37.021 -17.910 122 123 115
-46.611 -37.085 -17.928 119 120 112
-46.726 -37.148 -17.951 118 119 111
-46.843 -37.208 -17.972 117 118 110
-46.962 -37.265 -17.993 110 111 103
-47.082 -37.320 -18.016 105 106 98
-47.203 -37.371 -18.038 107 108 100
-47.326 -37.419 -18.059 115 116 108
-47.450 -37.464 -18.078 116 117 109
-47.576 -37.505 -18.096 117 118 110
-47.702 -37.544 -18.116 122 123 115
-47.830 -37.581 -18.142 120 121 113
-47.958 -37.616 -18.170 112 113 107
-48.087 -37.649 -18.200 116 117 111
-48.217 -37.677 -18.229 119 120 114
-48.348 -37.703 -18.259 114 115 109
-48.479 -37.726 -18.288 119 120 112
-48.612 -37.745 -18.318 118 119 111
-48.744 -37.762 -18.349 118 119 111
-48.878 -37.774 -18.379 115 116 108
-49.012 -37.784 -18.407 112 113 105
-49.146 -37.789 -18.431 117 118 110
-49.281 -37.789 -18.452 117 118 110
-49.416 -37.786 -18.472 122 123 115
-49.550 -37.780 -18.492 118 119 111
-49.685 -37.770 -18.512 118 119 111
-49.819 -37.758 -18.533 119 120 112
-49.954 -37.743 -18.557 118 119 111
-50.088 -37.725 -18.583 124 125 117
-50.222 -37.704 -18.610 120 121 113
-50.356 -37.680 -18.640 122 123 115
-50.489 -37.653 -18.668 112 113 105
-50.621 -37.621 -18.692 123 124 116
-50.753 -37.586 -18.715 122 123 115
-50.885 -37.549 -18.746 118 119 111
-51.016 -37.509 -18.776 120 121 113
-51.146 -37.467 -18.809 121 122 114
-51.275 -37.420 -18.838 124 125 117
-51.402 -37.370 -18.866 130 131 123
-51.529 -37.317 -18.896 124 125 117
-51.655 -37.261 -18.927 122 123 115
-51.781 -37.203 -18.964 124 125 117
-51.905 -37.143 -19.003 122 123 115
-52.026 -37.076 -19.028 127 128 120
-52.145 -37.005 -19.049 248 249 243
-52.264 -36.932 -19.075 211 212 206
-52.381 -36.858 -19.107 127 128 122
-52.497 -36.781 -19.139 126 127 121
-52.610 -36.699 -19.165 121 122 114
-52.721 -36.615 -19.192 124 125 117
-52.830 -36.529 -19.220 124 125 117
-52.938 -36.439 -19.249 125 126 118
-53.044 -36.348 -19.281 119 120 112
-53.149 -36.255 -19.320 119 120 112
-53.254 -36.160 -19.367 123 124 116
-53.357 -36.064 -19.417 125 126 118
-53.458 -35.964 -19.464 123 123 115
-53.554 -35.860 -19.503 126 123 116
-53.648 -35.754 -19.539 128 128 120
-53.740 -35.646 -19.584 126 126 118
-53.834 -35.537 -19.642 133 128 124
-53.928 -35.428 -19.714 132 127 121
-54.019 -35.316 -19.784 139 135 126
-54.104 -35.200 -19.840 136 132 121
-54.182 -35.079 -19.876 131 132 124
-54.255 -34.955 -19.905 127 128 120
-54.322 -34.827 -19.923 124 125 117
-54.393 -34.701 -19.967 127 128 120
-54.604 -34.632 -20.589 128 128 120
-58.123 -35.830 -34.445 97 92 86
-60.365 -36.378 -43.000 150 141 136
-61.300 -36.375 -46.296 231 217 214
-61.396 -36.072 -46.296 211 205 205
-61.484 -35.767 -46.296 74 72 73
-61.565 -35.460 -46.296 36 36 36
-61.639 -35.151 -46.296 40 42 41
-61.704 -34.840 -46.296 36 38 35
-61.762 -34.528 -46.296 36 38 35
-61.813 -34.214 -46.296 43 45 42
-61.856 -33.900 -46.296 41 43 40
-61.891 -33.584 -46.296 40 42 39
-61.918 -33.268 -46.296 40 42 39
-61.937 -32.951 -46.296 40 42 39
-61.949 -32.633 -46.296 126 128 125
-61.953 -32.316 -46.296 124 126 121
-61.949 -31.998 -46.296 148 149 144
-61.937 -31.681 -46.296 144 145 140
-61.918 -31.364 -46.296 105 106 101
-61.891 -31.047 -46.296 92 93 87
-61.856 -30.731 -46.296 125 126 120
-61.813 -30.417 -46.296 138 139 133
-61.762 -30.103 -46.296 168 169 163
-61.704 -29.791 -46.296 164 163 159
-61.639 -29.480 -46.296 163 162 158
-61.565 -29.171 -46.296 151 150 145
-61.484 -28.864 -46.296 153 153 143
-61.396 -28.559 -46.296 144 145 137
-61.300 -28.256 -46.296 144 145 137
-61.196 -27.956 -46.296 137 138 132
-61.086 -27.658 -46.296 103 104 98
-60.968 -27.363 -46.296 117 118 112
-60.843 -27.071 -46.296 109 110 104
-60.710 -26.783 -46.296 112 113 107
-60.571 -26.497 -46.296 115 114 109
-60.425 -26.215 -46.296 109 111 106
-60.272 -25.937 -46.296 107 109 106
-60.112 -25.663 -46.296 104 106 103
-59.945 -25.392 -46.296 112 114 111
-59.772 -25.126 -46.296 104 104 102
-59.592 -24.864 -46.296 109 109 107
-59.406 -24.607 -46.296 105 105 103
-59.214 -24.354 -46.296 103 103 101
-59.016 -24.106 -46.296 106 108 107
-58.811 -23.863 -46.296 103 105 104
-58.601 -23.625 -46.296 103 105 104
-58.384 -23.392 -46.296 97 99 98
-58.163 -23.165 -46.296 101 101 103
-57.935 -22.943 -46.296 100 100 102
-57.703 -22.727 -46.296 103 103 101
-57.465 -22.517 -46.296 112 113 108
-57.222 -22.312 -46.296 118 117 115
-56.974 -22.114 -46.296 112 112 110
-56.721 -21.921 -46.296 109 109 107
-56.464 -21.735 -46.296 108 110 107
-56.202 -21.556 -46.296 111 112 107
-55.935 -21.382 -46.296 116 117 111
-55.665 -21.216 -46.296 138 139 133
-55.391 -21.056 -46.296 139 142 133
-55.112 -20.903 -46.296 140 142 129
-54.830 -20.756 -46.296 138 140 127
-54.545 -20.617 -46.296 101 106 99
-54.256 -20.485 -46.296 93 96 89
-53.964 -20.360 -46.296 96 101 95
-53.669 -20.242 -46.296 96 98 95
-53.372 -20.131 -46.296 95 97 94
-53.071 -20.028 -46.296 95 97 94
-52.769 -19.932 -46.296 89 91 90
-52.464 -19.843 -46.296 93 95 94
-52.156 -19.762 -46.296 89 91 90
-51.847 -19.689 -46.296 91 93 92
-51.537 -19.623 -46.296 87 89 84
-51.224 -19.565 -46.296 88 91 84
-50.911 -19.515 -46.296 84 87 80
-50.596 -19.472 -46.296 81 84 75
-50.280 -19.437 -46.296 72 77 71
-49.881 -20.531 -42.099 24 30 28
-49.517 -22.032 -36.426 23 28 31
-49.233 -23.307 -31.630 26 31 35
-49.012 -27.368 -17.751 166 139 122
-48.891 -27.369 -17.755 166 140 125
-48.769 -27.373 -17.756 165 139 126
-48.648 -27.380 -17.755 166 142 130
-48.527 -27.389 -17.763 166 142 130
-48.406 -27.398 -17.780 172 148 136
-48.285 -27.411 -17.793 170 148 135
-48.164 -27.427 -17.807 171 152 138
-48.044 -27.450 -17.804 171 152 138
-47.925 -27.474 -17.810 162 144 130
-47.806 -27.503 -17.808 166 153 137
-47.689 -27.534 -17.805 147 138 121
-47.573 -27.571 -17.792 154 147 129
-47.459 -27.616 -17.759 170 163 145
-47.348 -27.666 -17.717 189 182 164
-47.241 -27.723 -17.651 139 132 114
-47.136 -27.787 -17.567 149 144 125
-47.035 -27.856 -17.472 153 148 129
-46.940 -27.935 -17.347 151 146 127
-46.846 -28.013 -17.231 118 113 94
-46.756 -28.095 -17.107 160 153 135
-46.672 -28.186 -16.950 138 131 113
-46.597 -28.286 -16.757 150 143 125
-46.527 -28.391 -16.544 159 152 134
-46.458 -28.493 -16.352 129 122 103
-46.373 -28.569 -16.295 144 137 119
-46.282 -28.634 -16.298 145 138 122
-46.188 -28.697 -16.324 144 136 123
-46.096 -28.762 -16.353 144 138 126
-46.004 -28.829 -16.382 137 131 119
-45.915 -28.899 -16.408 137 131 119
-45.828 -28.972 -16.433 138 132 120
-45.742 -29.046 -16.459 141 132 123
-45.658 -29.122 -16.487 141 134 124
-45.576 -29.201 -16.514 137 133 122
-45.495 -29.281 -16.545 135 133 121
-45.415 -29.364 -16.577 138 134 123
-45.337 -29.447 -16.612 134 130 119
-45.261 -29.533 -16.645 132 128 117
-45.187 -29.622 -16.678 132 128 117
-45.115 -29.712 -16.711 132 127 121
-45.046 -29.804 -16.743 132 127 121
-44.978 -29.898 -16.775 132 127 121
-44.913 -29.994 -16.807 131 126 120
-44.850 -30.091 -16.841 133 130 123
-44.789 -30.190 -16.875 127 127 119
-44.731 -30.291 -16.906 127 127 119
-44.675 -30.393 -16.939 126 126 118
-44.621 -30.497 -16.973 123 123 115
-44.569 -30.602 -17.010 123 123 115
-44.520 -30.708 -17.048 122 122 114
-44.472 -30.816 -17.087 120 120 112
-44.428 -30.925 -17.125 124 124 116
-44.386 -31.035 -17.163 121 121 113
-44.347 -31.147 -17.200 118 118 110
-44.310 -31.260 -17.238 118 118 110
-44.276 -31.374 -17.277 120 121 113
-44.245 -31.488 -17.316 115 116 108
-44.217 -31.604 -17.354 116 117 109
-44.191 -31.721 -17.394 117 118 110
-44.168 -31.838 -17.434 118 118 110
-44.148 -31.957 -17.472 119 119 111
-44.131 -32.076 -17.511 119 119 111
-44.118 -32.195 -17.546 122 122 114
-44.108 -32.316 -17.579 132 129 122
-44.101 -32.436 -17.610 135 132 125
-44.098 -32.557 -17.642 133 130 123
-44.097 -32.678 -17.674 128 125 118
-44.100 -32.799 -17.706 130 127 118
-44.106 -32.921 -17.736 125 121 110
-44.114 -33.042 -17.769 154 150 139
-44.125 -33.163 -17.800 216 212 201
-44.141 -33.285 -17.828 239 237 225
-44.160 -33.405 -17.851 228 226 214
-44.183 -33.525 -17.875 151 149 137
-44.208 -33.645 -17.900 193 191 179
-44.237 -33.764 -17.921 224 221 206
-44.268 -33.883 -17.945 228 224 212
-44.303 -34.001 -17.969 219 215 203
-44.343 -34.117 -17.981 126 122 111
-44.387 -34.231 -17.987 123 120 111
-44.433 -34.345 -17.994 124 121 114
-44.482 -34.458 -18.007 134 131 124
-44.531 -34.571 -18.026 127 124 117
-44.584 -34.683 -18.047 128 125 118
-44.640 -34.792 -18.060 125 122 115
