ply
format ascii 1.0
element vertex 1494
property float x
property float y
property float z
property uchar red
property uchar green
property uchar blue
end_header
-7.599 -21.514 -47.759 2 5 12
-7.479 -21.527 -47.759 0 5 11
-7.360 -21.543 -47.759 0 4 10
-7.241 -21.562 -47.759 2 7 13
-7.123 -21.584 -47.759 5 10 14
-7.005 -21.609 -47.759 1 6 12
-6.888 -21.637 -47.759 4 9 15
-6.772 -21.668 -47.759 4 9 15
-6.656 -21.701 -47.759 7 12 18
-6.542 -21.738 -47.759 3 10 16
-6.428 -21.777 -47.759 3 10 16
-6.315 -21.819 -47.759 2 9 15
-6.203 -21.863 -47.759 8 13 19
-6.093 -21.911 -47.759 10 15 21
-5.984 -21.961 -47.759 15 20 26
-5.875 -22.013 -47.759 18 23 29
-5.769 -22.069 -47.759 21 25 34
-5.663 -22.127 -47.759 17 24 32
-5.559 -22.187 -47.759 22 29 37
-5.457 -22.251 -47.759 22 29 37
-5.356 -22.316 -47.759 25 34 41
-5.257 -22.384 -47.759 28 37 44
-5.159 -22.455 -47.759 29 38 45
-5.064 -22.527 -47.759 31 40 47
-4.970 -22.603 -47.759 30 41 47
-4.878 -22.680 -47.759 33 44 50
-4.788 -22.760 -47.759 33 44 50
-4.700 -22.842 -47.759 35 46 52
-4.613 -22.926 -47.759 37 44 50
-4.529 -23.012 -47.759 42 47 53
-4.448 -23.100 -47.759 41 46 52
-4.368 -23.190 -47.759 44 49 55
-4.290 -23.282 -47.759 44 49 55
-4.215 -23.376 -47.759 46 51 57
-4.142 -23.472 -47.759 48 53 59
-4.072 -23.569 -47.759 47 52 58
-4.004 -23.668 -47.759 47 54 62
-3.938 -23.769 -47.759 47 54 62
-3.875 -23.872 -47.759 46 53 61
-3.815 -23.975 -47.759 47 54 62
-3.757 -24.081 -47.759 51 58 64
-3.701 -24.188 -47.759 50 57 63
-3.649 -24.296 -47.759 46 53 59
-3.598 -24.405 -47.759 48 55 61
-3.551 -24.516 -47.759 53 58 64
-3.506 -24.627 -47.759 54 59 65
-3.465 -24.740 -47.759 53 58 64
-3.425 -24.854 -47.759 53 58 64
-3.389 -24.968 -47.759 52 59 65
-3.356 -25.084 -47.759 49 56 62
-3.325 -25.200 -47.759 52 59 65
-3.297 -25.317 -47.759 55 62 68
-3.272 -25.435 -47.759 54 58 67
-3.250 -25.553 -47.759 51 55 64
-3.231 -25.672 -47.759 54 58 67
-3.215 -25.791 -47.759 51 55 64
-3.202 -25.911 -47.759 50 54 63
-3.191 -26.031 -47.759 46 50 59
-3.184 -26.151 -47.759 45 49 58
-3.180 -26.271 -47.759 43 47 56
-3.178 -26.391 -47.759 39 46 54
-3.180 -26.511 -47.759 37 44 52
-3.184 -26.632 -47.759 31 38 46
-3.191 -26.752 -47.759 29 36 44
-3.202 -26.871 -47.759 28 32 41
-3.215 -26.991 -47.759 24 28 37
-3.231 -27.110 -47.759 22 26 35
-3.250 -27.229 -47.759 20 24 33
-3.272 -27.347 -47.759 16 23 31
-3.297 -27.465 -47.759 14 21 29
-3.325 -27.582 -47.759 13 20 28
-3.356 -27.698 -47.759 13 20 28
-3.389 -27.814 -47.759 10 19 26
-3.425 -27.928 -47.759 13 20 28
-3.465 -28.042 -47.759 11 15 24
-3.506 -28.155 -47.759 11 14 23
-3.551 -28.267 -47.759 10 14 23
-3.598 -28.377 -47.759 9 16 24
-3.649 -28.486 -47.759 7 14 22
-3.701 -28.595 -47.759 7 14 22
-3.757 -28.701 -47.759 8 12 21
-3.815 -28.807 -47.759 9 13 22
-3.875 -28.911 -47.759 9 13 22
-3.938 -29.013 -47.759 9 13 22
-4.004 -29.114 -47.759 10 15 21
-4.072 -29.213 -47.759 8 13 19
-4.142 -29.310 -47.759 7 12 18
-4.215 -29.406 -47.759 7 12 18
-4.290 -29.500 -47.759 7 11 20
-4.368 -29.592 -47.759 6 10 19
-4.448 -29.682 -47.759 7 11 20
-4.529 -29.770 -47.759 8 12 21
-4.613 -29.856 -47.759 5 12 20
-4.700 -29.940 -47.759 6 13 21
-4.788 -30.022 -47.759 6 13 21
-4.878 -30.102 -47.759 6 13 21
-4.970 -30.179 -47.759 5 9 18
-5.064 -30.255 -47.759 6 10 19
-5.159 -30.327 -47.759 6 10 19
-5.257 -30.398 -47.759 9 13 22
-5.356 -30.466 -47.759 6 10 19
-5.457 -30.532 -47.759 6 10 19
-5.559 -30.595 -47.759 5 9 18
-5.663 -30.655 -47.759 5 9 18
-5.769 -30.713 -47.759 5 9 18
-5.875 -30.769 -47.759 5 9 18
-5.984 -30.821 -47.759 8 12 21
-6.093 -30.871 -47.759 8 12 21
-6.203 -30.919 -47.759 7 10 19
-6.315 -30.964 -47.759 6 10 19
-6.428 -31.005 -47.759 7 14 22
-6.542 -31.045 -47.759 8 17 24
-6.656 -31.081 -47.759 7 14 22
-6.772 -31.114 -47.759 7 14 22
-6.888 -31.145 -47.759 5 12 20
-7.006 -31.170 -47.727 6 13 21
-7.124 -31.191 -47.690 9 14 20
-7.243 -31.209 -47.653 10 15 21
-7.362 -31.225 -47.616 9 14 20
-7.481 -31.238 -47.581 9 14 20
-7.601 -31.247 -47.545 9 14 20
-7.720 -31.254 -47.509 12 17 23
-7.840 -31.258 -47.473 10 15 21
-7.959 -31.259 -47.437 13 18 24
-8.079 -31.257 -47.402 14 18 29
-8.198 -31.252 -47.367 11 15 26
-8.317 -31.244 -47.331 13 17 28
-8.436 -31.233 -47.296 15 19 30
-8.554 -31.220 -47.262 13 17 28
-8.672 -31.203 -47.230 14 18 29
-8.790 -31.184 -47.199 15 19 30
-8.907 -31.162 -47.168 15 19 30
-9.023 -31.138 -47.137 13 20 30
-9.139 -31.110 -47.109 14 21 31
-9.253 -31.080 -47.081 13 20 30
-9.367 -31.047 -47.054 13 20 30
-9.481 -31.012 -47.026 16 20 31
-9.593 -30.973 -46.997 15 19 30
-9.704 -30.932 -46.967 17 21 32
-9.814 -30.888 -46.938 16 20 31
-9.922 -30.841 -46.907 17 21 30
-10.030 -30.792 -46.876 14 19 25
-10.136 -30.740 -46.844 16 21 27
-10.241 -30.685 -46.814 15 20 26
-10.344 -30.629 -46.788 15 22 30
-10.446 -30.570 -46.765 13 22 29
-10.547 -30.509 -46.742 13 22 29
-10.646 -30.445 -46.716 14 23 30
-10.743 -30.378 -46.689 13 17 26
-10.839 -30.309 -46.660 16 20 29
-10.932 -30.238 -46.632 16 20 29
-11.024 -30.165 -46.604 14 18 27
-11.114 -30.089 -46.575 13 20 26
-11.202 -30.011 -46.542 10 17 23
-11.287 -29.931 -46.509 13 20 26
-11.371 -29.849 -46.475 13 20 26
-11.453 -29.765 -46.441 14 18 27
-11.532 -29.678 -46.403 13 17 26
-11.608 -29.590 -46.363 15 19 28
-11.683 -29.500 -46.323 13 17 26
-11.755 -29.408 -46.284 18 23 29
-11.825 -29.315 -46.250 12 17 23
-11.893 -29.220 -46.217 16 21 27
-11.959 -29.124 -46.182 16 21 27
-12.022 -29.026 -46.148 12 19 25
-12.083 -28.927 -46.118 12 19 25
-12.142 -28.826 -46.091 13 20 26
-12.198 -28.724 -46.066 11 18 24
-12.252 -28.622 -46.041 14 18 27
-12.303 -28.517 -46.018 14 18 27
-12.352 -28.412 -45.998 15 19 28
-12.399 -28.306 -45.982 12 16 25
-12.444 -28.199 -45.970 12 16 25
-12.486 -28.091 -45.959 12 16 25
-12.526 -27.982 -45.952 14 18 27
-12.563 -27.872 -45.949 15 19 28
-12.598 -27.762 -45.950 14 18 27
-12.631 -27.651 -45.958 16 20 29
-12.662 -27.539 -45.969 15 19 28
-12.690 -27.426 -45.980 21 25 34
-12.715 -27.313 -45.996 23 30 40
-12.738 -27.199 -46.009 32 39 49
-12.758 -27.085 -46.026 42 49 59
-12.775 -26.970 -46.039 46 53 63
-12.789 -26.855 -46.050 47 54 64
-12.799 -26.739 -46.057 47 54 64
-12.807 -26.623 -46.063 47 54 64
-12.811 -26.507 -46.064 49 56 66
-12.813 -26.391 -46.062 48 55 65
-12.811 -26.275 -46.058 49 56 66
-12.806 -26.159 -46.052 49 56 66
-12.798 -26.043 -46.045 49 56 66
-12.787 -25.927 -46.038 49 56 66
-12.774 -25.812 -46.030 50 57 67
-12.757 -25.697 -46.019 51 58 68
-12.737 -25.583 -46.006 49 56 66
-12.715 -25.469 -45.992 50 54 65
-12.689 -25.356 -45.977 51 55 66
-12.661 -25.243 -45.964 50 54 65
-12.630 -25.132 -45.945 49 53 64
-12.596 -25.021 -45.924 51 55 66
-12.559 -24.911 -45.900 50 54 65
-12.519 -24.802 -45.878 51 55 66
-12.477 -24.695 -45.856 48 52 63
-12.431 -24.588 -45.833 50 54 65
-12.383 -24.483 -45.807 49 53 64
-12.333 -24.379 -45.778 50 54 65
-12.280 -24.276 -45.751 50 54 65
-12.224 -24.175 -45.723 50 54 65
-12.166 -24.076 -45.693 49 53 64
-12.105 -23.978 -45.661 50 54 65
-12.042 -23.881 -45.628 49 53 64
-11.977 -23.787 -45.595 49 53 64
-11.909 -23.694 -45.563 50 54 65
-11.839 -23.602 -45.532 49 53 64
-11.767 -23.513 -45.499 49 53 64
-11.693 -23.425 -45.464 46 53 61
-11.616 -23.340 -45.431 48 55 63
-11.538 -23.256 -45.398 49 56 64
-11.458 -23.174 -45.366 47 54 62
-11.375 -23.095 -45.332 49 53 62
-11.291 -23.017 -45.294 50 54 63
-11.205 -22.942 -45.258 51 55 64
-11.117 -22.869 -45.222 52 56 65
-11.028 -22.798 -45.192 52 59 67
-10.936 -22.730 -45.156 52 59 67
-10.844 -22.663 -45.123 51 58 66
-10.749 -22.599 -45.090 48 55 63
-10.654 -22.537 -45.062 46 53 61
-10.558 -22.477 -45.040 48 55 63
-10.460 -22.419 -45.018 47 54 62
-10.360 -22.364 -44.994 44 51 59
-10.260 -22.311 -44.967 48 55 63
-10.158 -22.261 -44.942 45 52 60
-10.055 -22.214 -44.920 45 52 60
-9.951 -22.168 -44.900 46 53 61
-9.846 -22.126 -44.873 44 51 59
-9.739 -22.087 -44.841 44 51 59
-9.632 -22.050 -44.809 44 51 59
-9.524 -22.016 -44.780 44 51 59
-9.416 -21.985 -44.753 44 51 59
-9.306 -21.956 -44.724 44 51 59
-9.196 -21.930 -44.698 44 51 59
-9.086 -21.906 -44.673 46 53 61
-8.975 -21.885 -44.643 43 50 58
-8.864 -21.868 -44.610 44 51 59
-8.752 -21.853 -44.575 44 51 59
-8.640 -21.842 -44.539 43 50 58
-8.528 -21.833 -44.500 43 50 56
-8.416 -21.827 -44.461 41 48 54
-8.303 -21.825 -44.420 39 46 52
-8.191 -21.826 -44.367 39 46 52
-8.079 -22.305 -47.833 5 10 16
-7.979 -22.306 -47.833 5 10 16
-7.878 -22.310 -47.833 7 12 18
-7.778 -22.316 -47.833 8 13 19
-7.678 -22.325 -47.833 10 17 25
-7.579 -22.336 -47.833 11 20 27
-7.479 -22.349 -47.833 10 19 26
-7.380 -22.365 -47.833 13 22 29
-7.282 -22.384 -47.833 16 26 28
-7.184 -22.404 -47.833 18 27 32
-7.086 -22.427 -47.833 20 29 36
-6.989 -22.453 -47.833 22 31 40
-6.893 -22.481 -47.833 21 32 38
-6.797 -22.511 -47.833 22 35 41
-6.702 -22.544 -47.833 25 38 44
-6.608 -22.579 -47.833 25 38 44
-6.515 -22.616 -47.833 30 39 46
-6.423 -22.656 -47.833 32 41 48
-6.332 -22.697 -47.833 35 44 51
-6.242 -22.741 -47.833 33 42 49
-6.153 -22.787 -47.833 35 44 51
-6.065 -22.836 -47.833 35 44 51
-5.978 -22.886 -47.833 37 46 53
-5.893 -22.939 -47.833 37 46 53
-5.809 -22.994 -47.833 38 45 53
-5.726 -23.050 -47.833 38 45 53
-5.645 -23.109 -47.833 42 49 57
-5.565 -23.170 -47.833 42 49 57
-5.487 -23.232 -47.833 40 49 56
-5.410 -23.297 -47.833 42 51 58
-5.335 -23.363 -47.833 43 52 59
-5.261 -23.432 -47.833 45 54 61
-5.190 -23.502 -47.833 48 55 61
-5.120 -23.574 -47.833 48 53 59
-5.051 -23.647 -47.833 49 54 60
-4.985 -23.722 -47.833 49 54 60
-4.920 -23.799 -47.833 53 58 64
-4.858 -23.877 -47.833 54 59 65
-4.797 -23.957 -47.833 52 57 63
-4.738 -24.038 -47.833 52 57 63
-4.681 -24.121 -47.833 51 58 66
-4.627 -24.205 -47.833 51 58 66
-4.574 -24.290 -47.833 52 59 67
-4.524 -24.377 -47.833 50 57 65
-4.475 -24.465 -47.833 47 54 60
-4.429 -24.554 -47.833 49 56 62
-4.385 -24.644 -47.833 55 62 68
-4.343 -24.735 -47.833 48 55 61
-4.304 -24.827 -47.833 48 53 59
-4.267 -24.920 -47.833 47 52 58
-4.232 -25.014 -47.833 47 52 58
-4.199 -25.109 -47.833 43 48 54
-4.169 -25.205 -47.833 37 44 50
-4.141 -25.301 -47.833 34 41 47
-4.115 -25.398 -47.833 32 39 45
-4.092 -25.496 -47.833 26 33 39
-4.071 -25.594 -47.833 27 31 40
-4.053 -25.692 -47.833 23 27 36
-4.037 -25.791 -47.833 20 24 33
-4.024 -25.891 -47.833 18 22 31
-4.013 -25.991 -47.833 15 19 28
-4.004 -26.090 -47.833 15 19 28
-3.998 -26.191 -47.833 14 18 27
-3.994 -26.291 -47.833 14 18 27
-3.993 -26.391 -47.833 11 18 26
-3.994 -26.491 -47.833 11 18 26
-3.998 -26.592 -47.833 10 17 25
-4.004 -26.692 -47.833 9 16 24
-4.013 -26.792 -47.833 9 13 22
-4.024 -26.891 -47.833 9 13 22
-4.037 -26.991 -47.833 9 13 22
-4.053 -27.090 -47.833 9 13 22
-4.071 -27.188 -47.833 7 14 22
-4.092 -27.286 -47.833 7 14 22
-4.115 -27.384 -47.833 6 13 21
-4.141 -27.481 -47.833 6 13 21
-4.169 -27.577 -47.833 5 14 21
-4.199 -27.673 -47.833 4 11 19
-4.232 -27.768 -47.833 7 11 20
-4.267 -27.862 -47.833 7 10 19
-4.304 -27.955 -47.833 6 13 21
-4.343 -28.047 -47.833 4 13 20
-4.385 -28.138 -47.833 3 12 19
-4.429 -28.228 -47.833 3 12 19
-4.475 -28.317 -47.833 6 10 19
-4.524 -28.405 -47.833 6 10 19
-4.574 -28.492 -47.833 7 11 20
-4.627 -28.577 -47.833 7 11 20
-4.681 -28.661 -47.833 8 13 19
-4.738 -28.744 -47.833 7 12 18
-4.797 -28.825 -47.833 9 14 20
-4.858 -28.905 -47.833 9 14 20
-4.920 -28.983 -47.833 9 13 22
-4.985 -29.060 -47.833 11 15 24
-5.051 -29.135 -47.833 13 17 26
-5.120 -29.209 -47.833 14 18 27
-5.190 -29.280 -47.833 11 18 26
-5.261 -29.350 -47.833 9 18 25
-5.335 -29.419 -47.833 11 20 27
-5.410 -29.485 -47.833 11 20 27
-5.487 -29.550 -47.833 15 19 28
-5.565 -29.612 -47.833 16 20 29
-5.645 -29.673 -47.833 18 22 31
-5.726 -29.732 -47.833 16 20 29
-5.809 -29.788 -47.833 17 21 30
-5.893 -29.843 -47.833 18 22 31
-5.978 -29.896 -47.833 19 23 32
-6.065 -29.946 -47.833 21 25 34
-6.153 -29.995 -47.833 22 26 35
-6.242 -30.041 -47.833 23 27 36
-6.332 -30.085 -47.833 24 28 37
-6.423 -30.127 -47.833 26 30 39
-6.515 -30.166 -47.833 26 29 38
-6.608 -30.203 -47.833 26 30 39
-6.702 -30.238 -47.833 26 33 41
-6.797 -30.271 -47.833 26 35 42
-6.893 -30.301 -47.833 29 38 45
-6.989 -30.329 -47.833 31 40 47
-7.086 -30.355 -47.833 32 41 48
-7.184 -30.378 -47.833 33 42 49
-7.282 -30.399 -47.833 36 43 49
-7.380 -30.417 -47.833 34 42 45
-7.479 -30.433 -47.833 36 44 47
-7.579 -30.446 -47.833 36 44 47
-7.678 -30.457 -47.833 35 43 46
-7.778 -30.466 -47.833 35 43 46
-7.878 -30.471 -47.823 41 49 52
-7.979 -30.472 -47.789 38 46 49
-8.079 -30.471 -47.755 42 47 51
-8.179 -30.467 -47.721 43 48 52
-8.279 -30.460 -47.686 42 47 51
-8.378 -30.451 -47.651 45 50 54
-8.478 -30.440 -47.616 44 49 53
-8.577 -30.426 -47.581 44 49 53
-8.675 -30.410 -47.548 43 48 52
-8.773 -30.391 -47.515 43 48 52
-8.870 -30.371 -47.484 45 48 53
-8.967 -30.348 -47.456 46 49 54
-9.064 -30.322 -47.427 45 48 53
-9.159 -30.295 -47.397 43 46 51
-9.254 -30.265 -47.370 42 47 51
-9.348 -30.233 -47.340 40 48 51
-9.441 -30.198 -47.311 40 48 51
-9.533 -30.161 -47.281 36 44 47
-9.624 -30.122 -47.249 37 42 46
-9.714 -30.081 -47.219 37 42 46
-9.803 -30.037 -47.188 31 36 40
-9.891 -29.992 -47.160 28 33 37
-9.978 -29.944 -47.135 16 20 29
-10.064 -29.895 -47.110 7 11 20
-10.148 -29.843 -47.084 3 7 16
-10.231 -29.790 -47.059 2 6 15
-10.313 -29.734 -47.033 8 12 21
-10.393 -29.676 -47.004 8 12 21
-10.471 -29.616 -46.973 3 7 16
-10.548 -29.555 -46.944 1 5 14
-10.624 -29.492 -46.921 2 5 12
-10.698 -29.427 -46.897 2 5 10
-10.770 -29.360 -46.872 1 4 9
-10.840 -29.292 -46.844 1 4 9
-10.909 -29.221 -46.813 0 4 13
-10.976 -29.149 -46.779 2 6 15
-11.040 -29.075 -46.742 8 12 21
-11.103 -28.999 -46.704 9 13 22
-11.163 -28.922 -46.664 4 9 15
-11.222 -28.844 -46.628 0 5 9
-11.279 -28.765 -46.593 1 6 10
-11.334 -28.684 -46.558 1 6 10
-11.387 -28.601 -46.523 2 5 12
-11.438 -28.518 -46.492 2 5 12
-11.487 -28.434 -46.464 2 5 12
-11.535 -28.349 -46.437 5 8 15
-11.580 -28.262 -46.411 8 12 21
-11.623 -28.175 -46.385 7 11 20
-11.664 -28.087 -46.364 4 8 17
-11.703 -27.997 -46.346 2 6 15
-11.740 -27.908 -46.333 4 8 17
-11.776 -27.817 -46.324 4 8 17
-11.809 -27.726 -46.321 1 5 14
-11.841 -27.634 -46.321 2 6 15
-11.871 -27.541 -46.328 1 5 14
-11.899 -27.448 -46.342 6 10 19
-11.925 -27.355 -46.361 10 14 23
-11.950 -27.260 -46.384 16 20 29
-11.972 -27.165 -46.413 27 34 44
-11.992 -27.070 -46.442 36 43 53
-12.010 -26.974 -46.472 44 51 61
-12.025 -26.878 -46.496 48 55 65
-12.038 -26.781 -46.519 47 54 64
-12.048 -26.684 -46.537 47 54 64
-12.055 -26.586 -46.552 47 54 64
-12.060 -26.489 -46.561 49 56 66
-12.061 -26.391 -46.568 51 58 66
-12.060 -26.293 -46.572 51 58 66
-12.057 -26.196 -46.574 50 57 65
-12.051 -26.098 -46.574 49 56 64
-12.043 -26.001 -46.574 48 55 65
-12.032 -25.904 -46.572 49 56 66
-12.018 -25.807 -46.567 48 55 65
-12.002 -25.710 -46.560 47 54 64
-11.983 -25.614 -46.551 50 54 65
-11.962 -25.519 -46.542 49 53 64
-11.939 -25.424 -46.533 50 54 65
-11.913 -25.330 -46.517 49 53 64
-11.884 -25.237 -46.500 51 55 66
-11.853 -25.144 -46.480 50 54 65
-11.820 -25.052 -46.461 49 53 64
-11.785 -24.962 -46.443 52 56 67
-11.747 -24.872 -46.422 47 51 62
-11.707 -24.783 -46.398 48 52 63
-11.664 -24.695 -46.372 50 54 65
-11.620 -24.609 -46.348 50 54 65
-11.573 -24.523 -46.321 50 54 65
-11.524 -24.439 -46.293 49 53 64
-11.473 -24.357 -46.263 51 55 66
-11.420 -24.275 -46.233 51 55 66
-11.365 -24.195 -46.204 52 56 67
-11.309 -24.116 -46.176 50 54 65
-11.250 -24.039 -46.147 50 54 65
-11.189 -23.964 -46.114 50 54 65
-11.126 -23.890 -46.081 52 59 67
-11.062 -23.818 -46.047 48 55 63
-10.996 -23.747 -46.015 50 57 65
-10.928 -23.678 -45.983 50 57 65
-10.859 -23.611 -45.948 51 55 64
-10.788 -23.546 -45.909 51 55 64
-10.715 -23.483 -45.871 53 57 66
-10.641 -23.421 -45.835 54 58 67
-10.565 -23.361 -45.802 52 59 67
-10.488 -23.303 -45.765 52 59 67
-10.410 -23.248 -45.729 51 58 66
-10.331 -23.194 -45.695 51 58 66
-10.250 -23.141 -45.666 49 56 64
-10.169 -23.091 -45.643 50 57 65
-10.086 -23.042 -45.620 50 57 65
-10.002 -22.996 -45.593 48 55 63
-9.917 -22.951 -45.565 50 57 65
-9.831 -22.909 -45.537 47 54 62
-9.745 -22.869 -45.514 47 54 62
-9.657 -22.831 -45.492 48 55 63
-9.568 -22.795 -45.465 47 54 62
-9.479 -22.762 -45.433 47 54 62
-9.388 -22.732 -45.402 46 53 61
-9.297 -22.703 -45.374 46 53 61
-9.206 -22.676 -45.348 46 53 61
-9.114 -22.651 -45.321 46 53 61
-9.021 -22.629 -45.296 44 51 59
-8.928 -22.609 -45.273 45 52 60
-8.835 -22.592 -45.246 44 51 59
-8.741 -22.577 -45.216 45 52 60
-8.647 -22.564 -45.183 45 52 60
-8.552 -22.555 -45.143 45 52 60
-8.457 -22.548 -45.097 45 52 58
-8.363 -22.543 -45.055 43 50 56
-8.268 -22.541 -45.015 40 47 53
-8.173 -22.542 -44.960 43 50 56
-8.079 -23.121 -47.893 29 36 42
-7.999 -23.122 -47.893 28 35 41
-7.918 -23.125 -47.893 36 43 51
-7.838 -23.130 -47.893 28 35 43
-7.758 -23.137 -47.893 31 35 44
-7.679 -23.145 -47.893 34 38 47
-7.599 -23.156 -47.893 34 43 50
-7.520 -23.169 -47.893 34 45 51
-7.441 -23.184 -47.893 33 44 48
-7.362 -23.200 -47.893 34 45 49
-7.284 -23.219 -47.893 34 45 49
-7.207 -23.239 -47.893 36 47 53
-7.130 -23.262 -47.893 37 46 53
-7.053 -23.286 -47.893 42 51 58
-6.977 -23.312 -47.893 38 47 54
-6.902 -23.340 -47.893 40 49 56
-6.827 -23.370 -47.893 42 49 55
-6.754 -23.401 -47.893 43 50 56
-6.681 -23.435 -47.893 42 49 55
-6.609 -23.470 -47.893 44 51 57
-6.537 -23.507 -47.893 42 52 54
-6.467 -23.546 -47.893 41 52 54
-6.398 -23.586 -47.893 40 51 55
-6.329 -23.628 -47.893 43 54 58
-6.262 -23.672 -47.893 47 54 60
-6.196 -23.717 -47.893 47 54 62
-6.131 -23.764 -47.893 49 56 64
-6.067 -23.813 -47.893 47 54 62
-6.004 -23.863 -47.893 51 58 64
-5.943 -23.915 -47.893 48 55 61
-5.883 -23.968 -47.893 50 57 63
-5.824 -24.023 -47.893 54 61 67
-5.767 -24.079 -47.893 51 59 62
-5.710 -24.136 -47.893 51 58 64
-5.656 -24.195 -47.893 49 56 64
-5.603 -24.255 -47.893 50 57 65
-5.551 -24.316 -47.893 49 56 62
-5.501 -24.379 -47.893 48 55 61
-5.452 -24.443 -47.893 47 54 60
-5.405 -24.508 -47.893 42 49 55
-5.360 -24.574 -47.893 46 51 57
-5.316 -24.642 -47.893 37 42 48
-5.274 -24.710 -47.893 33 38 44
-5.234 -24.779 -47.893 30 35 41
-5.195 -24.850 -47.893 27 32 38
-5.158 -24.921 -47.893 23 28 34
-5.123 -24.993 -47.893 21 26 32
-5.089 -25.066 -47.893 19 24 30
-5.058 -25.140 -47.893 14 21 29
-5.028 -25.214 -47.893 14 21 29
-5.000 -25.289 -47.893 12 19 27
-4.974 -25.365 -47.893 10 17 25
-4.950 -25.442 -47.893 11 18 26
-4.927 -25.519 -47.893 10 17 25
-4.907 -25.596 -47.893 8 15 23
-4.888 -25.675 -47.893 8 15 23
-4.872 -25.753 -47.893 6 13 19
-4.857 -25.832 -47.893 7 14 20
-4.844 -25.911 -47.893 5 12 18
-4.833 -25.991 -47.893 5 12 18
-4.824 -26.071 -47.893 6 13 21
-4.818 -26.150 -47.893 5 12 20
-4.813 -26.231 -47.893 3 10 18
-4.810 -26.311 -47.893 5 12 20
-4.809 -26.391 -47.893 3 10 16
-4.810 -26.471 -47.893 4 11 17
-4.813 -26.552 -47.893 6 11 17
-4.818 -26.632 -47.893 9 12 19
-4.824 -26.712 -47.893 7 12 18
-4.833 -26.791 -47.893 6 11 17
-4.844 -26.871 -47.893 7 12 18
-4.857 -26.950 -47.893 6 11 17
-4.872 -27.029 -47.893 7 14 20
-4.888 -27.108 -47.893 5 12 18
-4.907 -27.186 -47.893 2 9 15
-4.927 -27.263 -47.893 4 11 17
-4.950 -27.340 -47.893 6 13 21
-4.974 -27.417 -47.893 5 12 22
-5.000 -27.493 -47.893 13 20 30
-5.028 -27.568 -47.893 12 19 29
-5.058 -27.642 -47.893 12 19 29
-5.089 -27.716 -47.893 12 19 29
-5.123 -27.789 -47.893 10 17 27
-5.158 -27.861 -47.893 13 20 30
-5.195 -27.933 -47.893 16 23 31
-5.234 -28.003 -47.893 16 23 31
-5.274 -28.072 -47.893 18 25 33
-5.316 -28.141 -47.893 15 22 30
-5.360 -28.208 -47.893 17 21 30
-5.405 -28.274 -47.893 18 21 30
-5.452 -28.339 -47.893 12 16 25
-5.501 -28.403 -47.893 9 16 24
-5.551 -28.466 -47.893 7 14 22
-5.603 -28.527 -47.893 6 13 21
-5.656 -28.587 -47.893 7 14 22
-5.710 -28.646 -47.893 9 16 24
-5.767 -28.703 -47.893 16 21 27
-5.824 -28.759 -47.893 15 20 26
-5.883 -28.814 -47.893 16 23 29
-5.943 -28.867 -47.893 14 23 28
-6.004 -28.919 -47.893 18 25 33
-6.067 -28.969 -47.893 19 26 34
-6.131 -29.018 -47.893 22 29 37
-6.196 -29.065 -47.893 23 30 38
-6.262 -29.110 -47.893 27 34 42
-6.329 -29.154 -47.893 30 37 45
-6.398 -29.196 -47.893 36 43 51
-6.467 -29.236 -47.893 38 45 53
-6.537 -29.275 -47.893 41 48 56
-6.609 -29.312 -47.893 45 52 60
-6.681 -29.347 -47.893 47 54 62
-6.754 -29.381 -47.893 49 56 64
-6.827 -29.412 -47.893 53 56 63
-6.902 -29.442 -47.893 56 59 66
-6.977 -29.470 -47.893 56 61 67
-7.053 -29.496 -47.893 53 60 66
-7.130 -29.520 -47.893 55 62 68
-7.207 -29.543 -47.893 54 61 67
-7.284 -29.563 -47.893 58 65 71
-7.362 -29.582 -47.893 56 63 69
-7.441 -29.598 -47.893 61 66 70
-7.520 -29.613 -47.893 63 68 71
-7.599 -29.626 -47.893 63 68 71
-7.679 -29.637 -47.893 62 67 70
-7.758 -29.645 -47.893 65 70 74
-7.838 -29.652 -47.893 66 69 74
-7.918 -29.657 -47.893 65 68 73
-7.999 -29.660 -47.893 68 71 76
-8.079 -29.661 -47.893 71 74 79
-8.159 -29.660 -47.893 69 69 77
-8.239 -29.657 -47.893 66 66 74
-8.319 -29.652 -47.893 69 69 77
-8.399 -29.645 -47.893 69 69 77
-8.479 -29.637 -47.893 66 66 74
-8.559 -29.626 -47.893 67 67 75
-8.638 -29.613 -47.893 67 67 75
-8.717 -29.598 -47.893 65 68 75
-8.795 -29.582 -47.893 66 69 76
-8.873 -29.563 -47.893 63 66 73
-8.951 -29.543 -47.893 63 66 73
-9.028 -29.519 -47.872 63 68 74
-9.104 -29.493 -47.842 64 69 75
-9.179 -29.465 -47.812 65 70 76
-9.253 -29.435 -47.779 62 67 73
-9.327 -29.403 -47.746 60 63 70
-9.399 -29.370 -47.712 61 64 73
-9.471 -29.334 -47.677 61 64 73
-9.542 -29.297 -47.641 60 63 72
-9.612 -29.258 -47.604 59 64 70
-9.680 -29.218 -47.564 55 60 66
-9.748 -29.175 -47.523 33 38 44
-9.814 -29.131 -47.488 19 24 30
-9.880 -29.087 -47.461 14 19 25
-9.945 -29.040 -47.436 15 22 30
-10.008 -28.992 -47.406 29 36 46
-10.070 -28.942 -47.374 30 37 47
-10.131 -28.891 -47.346 22 29 35
-10.190 -28.839 -47.320 5 12 18
-10.249 -28.785 -47.295 6 10 19
-10.306 -28.730 -47.271 8 11 20
-10.361 -28.673 -47.244 4 8 17
-10.415 -28.615 -47.215 6 13 23
-10.468 -28.556 -47.187 8 15 25
-10.519 -28.495 -47.156 12 19 29
-10.568 -28.433 -47.119 29 33 42
-10.615 -28.370 -47.080 27 31 40
-10.661 -28.306 -47.042 21 25 34
-10.705 -28.241 -47.008 14 18 27
-10.748 -28.174 -46.975 15 22 30
-10.789 -28.107 -46.946 16 23 31
-10.829 -28.040 -46.923 12 19 27
-10.868 -27.971 -46.901 14 21 29
-10.905 -27.901 -46.883 19 23 32
-10.940 -27.831 -46.863 26 30 39
-10.973 -27.760 -46.837 29 33 42
-11.004 -27.688 -46.816 26 30 39
-11.034 -27.615 -46.803 27 31 40
-11.063 -27.542 -46.797 21 25 34
-11.090 -27.469 -46.797 21 25 34
-11.116 -27.394 -46.801 23 27 36
-11.141 -27.320 -46.813 20 24 33
-11.164 -27.245 -46.831 23 27 36
-11.185 -27.169 -46.854 23 27 36
-11.205 -27.093 -46.882 19 23 32
-11.223 -27.017 -46.916 22 29 37
-11.240 -26.940 -46.953 48 55 63
-11.255 -26.862 -46.987 44 51 59
-11.267 -26.784 -47.015 46 53 61
-11.278 -26.706 -47.044 46 53 61
-11.286 -26.628 -47.068 47 54 62
-11.292 -26.549 -47.089 47 54 62
-11.297 -26.470 -47.106 50 57 65
-11.298 -26.391 -47.121 51 58 66
-11.298 -26.312 -47.133 53 60 68
-11.296 -26.233 -47.143 52 59 67
-11.292 -26.154 -47.149 49 56 64
-11.285 -26.075 -47.154 47 54 62
-11.277 -25.997 -47.158 49 56 64
-11.266 -25.918 -47.159 51 58 66
-11.253 -25.840 -47.158 50 57 65
-11.239 -25.763 -47.154 50 57 65
-11.222 -25.685 -47.149 48 55 63
-11.203 -25.608 -47.143 48 55 63
-11.182 -25.532 -47.131 49 56 64
-11.159 -25.457 -47.115 48 55 63
-11.135 -25.382 -47.098 49 56 64
-11.108 -25.307 -47.081 50 57 65
-11.079 -25.234 -47.064 52 59 67
-11.049 -25.161 -47.045 49 56 66
-11.016 -25.089 -47.023 49 56 66
-10.982 -25.018 -46.999 47 54 64
-10.946 -24.948 -46.975 48 55 65
-10.908 -24.879 -46.951 46 53 61
-10.869 -24.810 -46.925 47 54 62
-10.828 -24.743 -46.898 46 53 61
-10.785 -24.677 -46.872 49 56 64
-10.741 -24.612 -46.845 49 53 64
-10.695 -24.549 -46.820 49 56 66
-10.647 -24.486 -46.791 51 57 69
-10.598 -24.425 -46.758 47 55 66
-10.548 -24.365 -46.726 52 56 65
-10.495 -24.306 -46.692 52 55 62
-10.442 -24.249 -46.660 52 55 62
-10.387 -24.193 -46.627 51 54 61
-10.331 -24.139 -46.592 52 55 62
-10.273 -24.086 -46.553 53 56 63
-10.214 -24.035 -46.515 54 57 64
-10.154 -23.985 -46.479 55 58 65
-10.093 -23.937 -46.445 54 57 64
-10.031 -23.890 -46.407 54 57 64
-9.968 -23.845 -46.371 55 58 65
-9.903 -23.801 -46.337 53 56 63
-9.838 -23.758 -46.310 54 57 64
-9.772 -23.717 -46.286 54 57 64
-9.705 -23.678 -46.261 57 60 67
-9.637 -23.640 -46.234 54 57 64
-9.568 -23.605 -46.206 50 53 60
-9.499 -23.570 -46.180 51 54 61
-9.428 -23.538 -46.158 51 54 61
-9.357 -23.507 -46.135 51 54 61
-9.286 -23.478 -46.109 47 54 60
-9.213 -23.451 -46.079 49 56 62
-9.140 -23.426 -46.051 45 52 58
-9.066 -23.402 -46.025 46 53 59
-8.992 -23.381 -45.998 48 53 59
-8.918 -23.361 -45.971 49 52 59
-8.842 -23.343 -45.945 48 51 58
-8.767 -23.326 -45.921 50 53 60
-8.691 -23.312 -45.895 48 52 61
-8.615 -23.300 -45.866 46 50 59
-8.539 -23.290 -45.834 46 50 59
-8.462 -23.282 -45.791 47 51 60
-8.386 -23.277 -45.738 47 52 58
-8.309 -23.274 -45.688 48 53 57
-8.232 -23.272 -45.642 47 52 56
-8.155 -23.274 -45.578 45 50 54
-8.079 -23.938 -47.940 37 45 48
-8.019 -23.938 -47.940 39 47 50
-7.959 -23.941 -47.940 42 49 55
-7.898 -23.944 -47.940 40 47 55
-7.838 -23.949 -47.940 44 48 57
-7.779 -23.956 -47.940 42 49 55
-7.719 -23.964 -47.940 39 48 53
-7.659 -23.974 -47.940 40 49 54
-7.600 -23.985 -47.940 41 50 55
-7.541 -23.997 -47.940 42 51 56
-7.483 -24.011 -47.940 43 52 57
-7.425 -24.027 -47.940 44 53 58
-7.367 -24.043 -47.940 45 52 58
-7.309 -24.061 -47.940 44 51 57
-7.252 -24.081 -47.940 45 52 58
-7.196 -24.102 -47.940 45 52 58
-7.140 -24.124 -47.940 46 53 59
-7.085 -24.148 -47.940 44 51 57
-7.030 -24.173 -47.940 47 54 60
-6.976 -24.200 -47.940 47 54 60
-6.922 -24.227 -47.940 44 54 55
-6.870 -24.256 -47.940 44 54 55
-6.818 -24.287 -47.940 45 55 57
-6.766 -24.318 -47.940 46 55 60
-6.716 -24.351 -47.940 48 55 61
-6.666 -24.385 -47.940 49 56 62
-6.617 -24.420 -47.940 50 57 63
-6.570 -24.457 -47.940 47 54 60
-6.522 -24.495 -47.940 48 56 59
-6.476 -24.533 -47.940 44 52 55
-6.431 -24.573 -47.940 42 50 53
-6.387 -24.614 -47.940 38 46 49
-6.344 -24.656 -47.940 33 41 44
-6.302 -24.699 -47.940 30 37 43
-6.261 -24.743 -47.940 25 32 40
-6.221 -24.789 -47.940 20 27 35
-6.182 -24.835 -47.940 19 26 34
-6.145 -24.882 -47.940 15 22 28
-6.108 -24.930 -47.940 15 22 28
-6.073 -24.978 -47.940 12 19 25
-6.039 -25.028 -47.940 13 18 24
-6.006 -25.078 -47.940 10 15 21
-5.975 -25.130 -47.940 12 17 23
-5.944 -25.182 -47.940 10 15 21
-5.915 -25.235 -47.940 9 14 20
-5.887 -25.288 -47.940 7 12 18
-5.861 -25.342 -47.940 8 13 19
-5.836 -25.397 -47.940 9 14 20
-5.812 -25.452 -47.940 4 11 19
-5.790 -25.508 -47.940 4 11 19
-5.769 -25.565 -47.940 5 12 20
-5.749 -25.621 -47.940 5 12 20
-5.731 -25.679 -47.940 6 13 21
-5.714 -25.737 -47.940 5 12 20
-5.699 -25.795 -47.940 4 11 19
-5.685 -25.854 -47.940 4 11 19
-5.673 -25.912 -47.940 3 10 16
-5.662 -25.972 -47.940 4 11 17
-5.652 -26.031 -47.940 3 10 16
-5.644 -26.091 -47.940 3 10 16
-5.637 -26.151 -47.940 3 10 18
-5.632 -26.211 -47.940 3 10 18
-5.628 -26.271 -47.940 4 11 19
-5.626 -26.331 -47.940 3 10 18
-5.626 -26.391 -47.940 3 12 17
-5.626 -26.451 -47.940 5 12 18
-5.628 -26.511 -47.940 9 14 20
-5.632 -26.572 -47.940 9 14 20
-5.637 -26.632 -47.940 11 16 22
-5.644 -26.691 -47.940 11 18 24
-5.652 -26.751 -47.940 13 20 26
-5.662 -26.810 -47.940 15 22 28
-5.673 -26.870 -47.940 13 20 26
-5.685 -26.929 -47.940 16 23 29
-5.699 -26.987 -47.940 20 27 33
-5.714 -27.045 -47.940 18 25 31
-5.731 -27.103 -47.940 17 24 32
-5.749 -27.161 -47.940 14 21 29
-5.769 -27.218 -47.940 10 17 25
-5.790 -27.274 -47.940 9 16 24
-5.812 -27.330 -47.940 6 13 21
-5.836 -27.385 -47.940 6 13 21
-5.861 -27.440 -47.940 5 12 20
-5.887 -27.494 -47.940 7 14 22
-5.915 -27.548 -47.940 13 20 28
-5.944 -27.600 -47.940 14 21 29
-5.975 -27.652 -47.940 17 24 32
-6.006 -27.704 -47.940 20 27 35
-6.039 -27.754 -47.940 24 27 36
-6.073 -27.804 -47.940 29 33 42
-6.108 -27.853 -47.940 31 38 46
-6.145 -27.900 -47.940 35 44 51
-6.182 -27.947 -47.940 40 47 55
-6.221 -27.994 -47.940 43 47 56
-6.261 -28.039 -47.940 47 51 60
-6.302 -28.083 -47.940 48 52 61
-6.344 -28.126 -47.940 49 54 60
-6.387 -28.168 -47.940 49 54 60
-6.431 -28.209 -47.940 48 55 61
-6.476 -28.249 -47.940 48 57 62
-6.522 -28.288 -47.940 48 55 63
-6.570 -28.325 -47.940 46 53 61
-6.617 -28.362 -47.940 45 52 60
-6.666 -28.397 -47.940 44 51 59
-6.716 -28.431 -47.940 45 52 60
-6.766 -28.464 -47.940 44 51 59
-6.818 -28.495 -47.940 45 52 60
-6.870 -28.526 -47.940 42 49 57
-6.922 -28.555 -47.940 42 49 57
-6.976 -28.582 -47.940 41 48 56
-7.030 -28.609 -47.940 39 46 54
-7.085 -28.634 -47.940 39 46 54
-7.140 -28.658 -47.940 42 45 52
-7.196 -28.680 -47.940 41 46 52
-7.252 -28.701 -47.940 38 45 51
-7.309 -28.721 -47.940 35 44 49
-7.367 -28.739 -47.940 39 46 52
-7.425 -28.756 -47.940 35 42 48
-7.483 -28.771 -47.940 33 40 46
-7.541 -28.785 -47.940 33 40 46
-7.600 -28.797 -47.940 37 42 48
-7.659 -28.808 -47.940 37 42 48
-7.719 -28.818 -47.940 34 39 45
-7.779 -28.826 -47.940 35 40 46
-7.838 -28.833 -47.940 35 39 48
-7.898 -28.838 -47.940 36 40 49
-7.959 -28.841 -47.940 35 39 48
-8.019 -28.844 -47.940 37 41 50
-8.079 -28.844 -47.940 35 40 46
-8.139 -28.844 -47.940 36 41 47
-8.199 -28.841 -47.940 36 41 47
-8.259 -28.838 -47.940 35 40 46
-8.319 -28.833 -47.940 37 42 48
-8.379 -28.826 -47.940 36 41 47
-8.439 -28.818 -47.940 38 43 49
-8.498 -28.808 -47.940 38 43 49
-8.558 -28.797 -47.940 40 45 51
-8.616 -28.785 -47.940 41 46 52
-8.675 -28.771 -47.940 41 46 52
-8.733 -28.756 -47.940 41 46 52
-8.791 -28.739 -47.940 43 48 54
-8.848 -28.721 -47.940 45 50 56
-8.905 -28.701 -47.940 47 52 58
-8.962 -28.680 -47.940 47 52 58
-9.018 -28.658 -47.940 47 50 57
-9.073 -28.634 -47.940 48 51 58
-9.128 -28.609 -47.940 52 55 62
-9.182 -28.582 -47.940 51 54 61
-9.235 -28.555 -47.940 54 57 64
-9.288 -28.526 -47.940 55 58 65
-9.340 -28.495 -47.940 59 62 69
-9.391 -28.464 -47.940 57 60 67
-9.442 -28.431 -47.940 32 37 43
-9.491 -28.397 -47.931 32 37 43
-9.539 -28.360 -47.905 52 56 65
-9.586 -28.323 -47.879 33 37 48
-9.633 -28.284 -47.851 16 25 32
-9.678 -28.244 -47.821 20 27 33
-9.722 -28.203 -47.789 22 27 33
-9.765 -28.162 -47.761 24 27 34
-9.807 -28.119 -47.733 25 29 38
-9.847 -28.075 -47.703 25 29 38
-9.887 -28.030 -47.673 29 33 42
-9.926 -27.984 -47.642 31 35 44
-9.963 -27.937 -47.613 29 33 42
-9.999 -27.890 -47.584 25 29 38
-10.034 -27.841 -47.555 29 33 42
-10.068 -27.792 -47.525 41 45 54
-10.101 -27.742 -47.495 39 46 54
-10.132 -27.691 -47.469 26 33 41
-10.162 -27.640 -47.448 25 32 40
-10.192 -27.588 -47.427 24 31 39
-10.220 -27.535 -47.408 24 28 37
-10.246 -27.482 -47.391 23 27 36
-10.272 -27.428 -47.374 23 27 36
-10.296 -27.374 -47.361 24 28 37
-10.319 -27.319 -47.351 33 37 46
-10.341 -27.263 -47.345 43 47 56
-10.361 -27.208 -47.344 29 33 42
-10.381 -27.151 -47.345 18 22 31
-10.399 -27.095 -47.353 12 16 25
-10.416 -27.038 -47.366 12 16 25
-10.432 -26.980 -47.380 20 24 33
-10.447 -26.923 -47.398 22 26 35
-10.460 -26.865 -47.423 41 48 56
-10.473 -26.806 -47.453 47 54 62
-10.483 -26.748 -47.479 48 55 63
-10.492 -26.689 -47.502 48 55 63
-10.500 -26.630 -47.525 50 57 65
-10.506 -26.570 -47.546 52 59 67
-10.511 -26.511 -47.567 53 60 68
-10.514 -26.451 -47.586 52 59 67
-10.516 -26.391 -47.604 53 60 68
-10.516 -26.331 -47.620 54 61 69
-10.514 -26.271 -47.634 52 59 67
-10.511 -26.212 -47.644 52 59 67
-10.507 -26.152 -47.655 53 60 68
-10.500 -26.092 -47.663 52 59 67
-10.493 -26.033 -47.669 53 60 68
-10.483 -25.974 -47.672 52 59 67
-10.472 -25.915 -47.671 52 59 67
-10.460 -25.856 -47.671 49 56 64
-10.446 -25.798 -47.670 50 57 65
-10.430 -25.740 -47.662 51 58 66
-10.413 -25.683 -47.649 51 58 66
-10.394 -25.626 -47.635 52 59 67
-10.374 -25.570 -47.620 52 59 67
-10.353 -25.514 -47.607 50 57 65
-10.330 -25.459 -47.591 52 59 69
-10.305 -25.404 -47.572 52 59 69
-10.279 -25.350 -47.551 53 60 70
-10.252 -25.297 -47.530 52 59 69
-10.224 -25.245 -47.509 53 60 68
-10.194 -25.193 -47.485 52 59 67
-10.163 -25.142 -47.462 52 59 67
-10.131 -25.092 -47.439 53 60 68
-10.097 -25.042 -47.414 51 55 66
-10.063 -24.994 -47.388 49 56 66
-10.027 -24.947 -47.359 49 56 66
-9.989 -24.900 -47.330 49 58 67
-9.951 -24.855 -47.300 47 54 64
-9.912 -24.810 -47.267 51 58 68
-9.871 -24.767 -47.236 49 56 66
-9.830 -24.724 -47.204 48 55 65
-9.787 -24.683 -47.168 48 55 65
-9.743 -24.643 -47.129 49 56 66
-9.698 -24.604 -47.090 51 58 68
-9.653 -24.566 -47.053 52 59 69
-9.607 -24.530 -47.017 50 57 67
-9.559 -24.494 -46.977 49 56 66
-9.511 -24.460 -46.940 50 57 67
-9.462 -24.427 -46.905 50 57 67
-9.413 -24.395 -46.876 50 57 67
-9.363 -24.363 -46.851 50 57 67
-9.312 -24.334 -46.825 49 56 66
-9.260 -24.305 -46.796 50 57 67
-9.208 -24.278 -46.768 48 55 65
-9.155 -24.252 -46.741 50 57 67
-9.102 -24.227 -46.719 50 57 67
-9.048 -24.204 -46.696 50 57 67
-8.994 -24.182 -46.669 48 57 66
-8.939 -24.162 -46.641 46 56 65
-8.884 -24.142 -46.616 50 60 69
-8.828 -24.124 -46.591 46 56 65
-8.771 -24.108 -46.565 47 54 64
-8.715 -24.093 -46.539 47 54 64
-8.658 -24.079 -46.515 48 55 65
-8.601 -24.067 -46.495 46 53 63
-8.543 -24.056 -46.472 45 52 60
-8.486 -24.046 -46.444 48 57 62
-8.428 -24.039 -46.410 48 57 62
-8.370 -24.033 -46.363 47 56 61
-8.312 -24.029 -46.305 45 55 57
-8.253 -24.027 -46.262 45 55 56
-8.195 -24.025 -46.225 44 54 55
-8.137 -24.026 -46.146 42 52 53
-8.079 -24.755 -47.973 42 50 52
-8.039 -24.756 -47.973 43 51 54
-7.999 -24.757 -47.973 43 51 54
-7.959 -24.760 -47.973 44 51 57
-7.919 -24.763 -47.973 43 52 57
-7.879 -24.767 -47.973 43 53 55
-7.839 -24.773 -47.973 47 55 58
-7.799 -24.779 -47.973 47 55 58
-7.760 -24.787 -47.973 45 52 58
-7.720 -24.795 -47.973 48 55 61
-7.681 -24.804 -47.973 47 54 60
-7.643 -24.814 -47.973 48 55 61
-7.604 -24.826 -47.973 47 55 58
-7.566 -24.838 -47.973 44 52 55
-7.528 -24.851 -47.973 48 56 59
-7.490 -24.865 -47.973 44 52 55
-7.453 -24.880 -47.973 46 53 59
-7.416 -24.895 -47.973 40 47 53
-7.379 -24.912 -47.973 44 51 57
-7.343 -24.930 -47.973 36 43 49
-7.308 -24.948 -47.973 38 46 49
-7.273 -24.968 -47.973 32 40 43
-7.238 -24.988 -47.973 28 35 41
-7.204 -25.009 -47.973 26 33 41
-7.170 -25.031 -47.973 25 32 38
-7.137 -25.054 -47.973 19 26 32
-7.104 -25.077 -47.973 16 23 29
-7.072 -25.101 -47.973 15 22 28
-7.041 -25.126 -47.973 11 19 22
-7.010 -25.152 -47.973 8 16 19
-6.980 -25.179 -47.973 13 21 24
-6.951 -25.206 -47.973 9 17 20
-6.922 -25.234 -47.973 8 16 19
-6.894 -25.263 -47.973 7 14 20
-6.867 -25.292 -47.973 5 12 20
-6.840 -25.322 -47.973 5 12 20
-6.814 -25.353 -47.973 5 12 20
-6.789 -25.385 -47.973 5 12 18
-6.765 -25.417 -47.973 5 12 18
-6.741 -25.449 -47.973 3 10 16
-6.719 -25.482 -47.973 6 11 17
-6.697 -25.516 -47.973 6 11 17
-6.676 -25.550 -47.973 5 10 16
-6.655 -25.585 -47.973 6 11 17
-6.636 -25.620 -47.973 5 10 16
-6.618 -25.656 -47.973 6 11 17
-6.600 -25.692 -47.973 4 9 15
-6.583 -25.728 -47.973 5 10 16
-6.567 -25.765 -47.973 3 10 18
-6.553 -25.802 -47.973 2 9 17
-6.539 -25.840 -47.973 2 9 17
-6.526 -25.878 -47.973 7 14 22
-6.513 -25.916 -47.973 4 11 19
-6.502 -25.955 -47.973 5 12 20
-6.492 -25.994 -47.973 6 13 21
-6.483 -26.033 -47.973 5 12 20
-6.474 -26.072 -47.973 6 13 19
-6.467 -26.111 -47.973 8 15 21
-6.461 -26.151 -47.973 7 14 20
-6.455 -26.191 -47.973 9 16 22
-6.451 -26.231 -47.973 9 16 24
-6.447 -26.271 -47.973 12 19 27
-6.445 -26.311 -47.973 16 23 31
-6.443 -26.351 -47.973 17 24 32
-6.443 -26.391 -47.973 18 25 31
-6.443 -26.431 -47.973 16 23 29
-6.445 -26.471 -47.973 18 27 32
-6.447 -26.511 -47.973 17 26 31
-6.451 -26.551 -47.973 13 22 27
-6.455 -26.591 -47.973 12 21 26
-6.461 -26.631 -47.973 9 18 23
-6.467 -26.671 -47.973 8 17 22
-6.474 -26.710 -47.973 11 18 24
-6.483 -26.749 -47.973 7 14 20
-6.492 -26.789 -47.973 13 20 26
-6.502 -26.827 -47.973 15 22 28
-6.513 -26.866 -47.973 16 23 29
-6.526 -26.904 -47.973 20 27 33
-6.539 -26.942 -47.973 24 31 37
-6.553 -26.980 -47.973 32 39 45
-6.567 -27.017 -47.973 40 47 53
-6.583 -27.054 -47.973 40 47 53
-6.600 -27.091 -47.973 48 55 61
-6.618 -27.127 -47.973 48 55 61
-6.636 -27.162 -47.973 52 59 67
-6.655 -27.197 -47.973 52 59 67
-6.676 -27.232 -47.973 49 56 64
-6.697 -27.266 -47.973 46 53 61
-6.719 -27.300 -47.973 49 53 62
-6.741 -27.333 -47.973 48 55 63
-6.765 -27.366 -47.973 42 51 58
-6.789 -27.398 -47.973 42 53 59
-6.814 -27.429 -47.973 42 46 55
-6.840 -27.460 -47.973 42 46 55
-6.867 -27.490 -47.973 39 43 52
-6.894 -27.519 -47.973 36 40 49
-6.922 -27.548 -47.973 30 37 43
-6.951 -27.576 -47.973 30 39 44
-6.980 -27.603 -47.973 28 37 42
-7.010 -27.630 -47.973 28 35 41
-7.041 -27.656 -47.973 25 32 40
-7.072 -27.681 -47.973 28 35 43
-7.104 -27.705 -47.973 26 33 41
-7.137 -27.729 -47.973 25 32 40
-7.170 -27.751 -47.973 27 34 42
-7.204 -27.773 -47.973 29 36 44
-7.238 -27.794 -47.973 29 36 44
-7.273 -27.814 -47.973 32 39 47
-7.308 -27.834 -47.973 30 37 45
-7.343 -27.852 -47.973 34 41 49
-7.379 -27.870 -47.973 35 42 50
-7.416 -27.887 -47.973 37 44 52
-7.453 -27.902 -47.973 43 47 56
-7.490 -27.917 -47.973 44 51 59
-7.528 -27.931 -47.973 45 54 61
-7.566 -27.944 -47.973 46 57 63
-7.604 -27.957 -47.973 50 57 63
-7.643 -27.968 -47.973 50 57 63
-7.681 -27.978 -47.973 51 58 64
-7.720 -27.987 -47.973 51 58 64
-7.760 -27.996 -47.973 54 58 69
-7.799 -28.003 -47.973 55 59 70
-7.839 -28.009 -47.973 57 61 72
-7.879 -28.015 -47.973 56 60 71
-7.919 -28.019 -47.973 55 62 72
-7.959 -28.023 -47.973 56 63 73
-7.999 -28.025 -47.973 58 65 75
-8.039 -28.027 -47.973 58 65 75
-8.079 -28.027 -47.973 57 66 73
-8.119 -28.027 -47.973 57 66 71
-8.159 -28.025 -47.973 57 66 71
-8.199 -28.023 -47.973 57 66 71
-8.239 -28.019 -47.973 57 66 71
-8.279 -28.015 -47.973 57 66 71
-8.319 -28.009 -47.973 58 67 72
-8.359 -28.003 -47.973 58 67 72
-8.398 -27.996 -47.973 59 66 72
-8.437 -27.987 -47.973 62 69 75
-8.476 -27.978 -47.973 61 68 74
-8.515 -27.968 -47.973 62 69 75
-8.554 -27.957 -47.973 64 69 75
-8.592 -27.944 -47.973 64 69 75
-8.630 -27.931 -47.973 64 69 75
-8.668 -27.917 -47.973 67 72 78
-8.705 -27.902 -47.973 67 70 75
-8.742 -27.887 -47.973 67 70 75
-8.778 -27.870 -47.973 67 70 75
-8.814 -27.852 -47.973 67 70 75
-8.850 -27.834 -47.973 70 70 78
-8.885 -27.814 -47.973 70 70 78
-8.920 -27.794 -47.973 69 69 77
-8.954 -27.773 -47.973 69 69 77
-8.988 -27.751 -47.973 67 70 75
-9.021 -27.729 -47.973 67 70 75
-9.053 -27.705 -47.973 66 69 76
-9.085 -27.681 -47.973 69 72 81
-9.117 -27.656 -47.973 64 71 79
-9.147 -27.630 -47.973 62 67 73
-9.178 -27.603 -47.973 54 57 62
-9.207 -27.576 -47.973 53 54 58
-9.236 -27.548 -47.973 48 51 58
-9.264 -27.519 -47.973 43 46 53
-9.291 -27.490 -47.973 36 39 46
-9.318 -27.460 -47.973 36 39 46
-9.344 -27.429 -47.973 27 32 38
-9.369 -27.398 -47.973 25 30 36
-9.393 -27.366 -47.973 21 26 32
-9.416 -27.333 -47.973 16 21 27
-9.439 -27.300 -47.973 11 15 24
-9.461 -27.266 -47.973 14 18 27
-9.482 -27.232 -47.973 16 20 29
-9.502 -27.197 -47.957 13 17 26
-9.521 -27.162 -47.944 14 18 27
-9.539 -27.126 -47.931 15 19 28
-9.556 -27.090 -47.920 17 21 30
-9.573 -27.053 -47.912 20 24 33
-9.588 -27.016 -47.905 20 24 33
-9.603 -26.979 -47.902 27 31 40
-9.617 -26.941 -47.903 35 39 48
-9.630 -26.904 -47.909 42 46 55
-9.643 -26.865 -47.918 54 58 67
-9.654 -26.827 -47.930 57 61 70
-9.665 -26.788 -47.942 54 58 67
-9.674 -26.749 -47.953 54 58 67
-9.683 -26.710 -47.968 53 60 68
-9.691 -26.671 -47.973 56 63 71
-9.697 -26.631 -47.973 56 63 71
-9.703 -26.591 -47.973 55 62 70
-9.707 -26.551 -47.973 56 63 71
-9.710 -26.511 -47.973 55 62 70
-9.713 -26.471 -47.973 56 63 71
-9.714 -26.431 -47.973 54 61 69
-9.715 -26.391 -47.973 52 59 67
-9.714 -26.351 -47.973 52 59 67
-9.713 -26.311 -47.973 50 57 65
-9.710 -26.271 -47.973 54 61 69
-9.707 -26.231 -47.973 53 60 68
-9.703 -26.191 -47.973 55 62 70
-9.697 -26.151 -47.973 52 59 67
-9.691 -26.111 -47.973 53 60 68
-9.683 -26.072 -47.973 49 56 64
-9.675 -26.033 -47.973 51 58 66
-9.666 -25.994 -47.973 54 61 69
-9.656 -25.955 -47.973 50 57 65
-9.644 -25.916 -47.973 51 58 66
-9.632 -25.878 -47.973 49 56 64
-9.619 -25.840 -47.973 52 59 67
-9.605 -25.802 -47.973 52 59 67
-9.590 -25.765 -47.973 51 58 66
-9.575 -25.728 -47.973 51 58 66
-9.558 -25.692 -47.973 51 58 66
-9.540 -25.656 -47.973 51 58 66
-9.522 -25.620 -47.973 51 58 66
-9.502 -25.585 -47.973 52 59 67
-9.482 -25.550 -47.973 51 58 66
-9.461 -25.516 -47.973 53 60 68
-9.439 -25.482 -47.973 50 57 67
-9.416 -25.449 -47.973 53 57 68
-9.392 -25.417 -47.948 57 61 70
-9.367 -25.386 -47.922 53 58 64
-9.342 -25.355 -47.894 52 59 67
-9.315 -25.325 -47.865 49 56 64
-9.288 -25.295 -47.834 52 59 67
-9.260 -25.267 -47.801 52 59 67
-9.231 -25.239 -47.766 51 58 66
-9.201 -25.212 -47.726 53 60 68
-9.171 -25.186 -47.686 54 61 69
-9.140 -25.160 -47.646 53 60 68
-9.109 -25.136 -47.608 48 55 63
-9.077 -25.112 -47.568 52 59 67
-9.045 -25.089 -47.530 52 59 67
-9.012 -25.066 -47.495 52 59 67
-8.979 -25.045 -47.465 51 58 66
-8.945 -25.024 -47.437 51 58 66
-8.910 -25.004 -47.412 52 59 67
-8.876 -24.984 -47.383 50 57 65
-8.841 -24.966 -47.354 52 59 67
-8.805 -24.949 -47.326 52 59 67
-8.769 -24.932 -47.302 54 61 69
-8.733 -24.916 -47.279 50 57 65
-8.696 -24.901 -47.254 50 59 66
-8.659 -24.887 -47.228 48 57 64
-8.622 -24.874 -47.203 47 56 63
-8.584 -24.862 -47.179 47 56 63
-8.546 -24.851 -47.154 48 55 63
-8.508 -24.841 -47.128 48 55 63
-8.469 -24.832 -47.105 48 55 63
-8.431 -24.823 -47.088 48 55 63
-8.392 -24.816 -47.067 51 59 62
-8.353 -24.809 -47.042 48 56 58
-8.314 -24.804 -47.010 45 53 55
-8.275 -24.800 -46.962 46 54 56
-8.236 -24.798 -46.909 47 57 58
-8.197 -24.796 -46.866 45 55 56
-8.157 -24.795 -46.806 44 54 55
-8.118 -24.797 -46.722 41 51 52
-8.079 -25.573 -47.993 46 55 54
-8.059 -25.573 -47.993 45 53 55
-8.039 -25.574 -47.993 48 56 59
-8.019 -25.575 -47.993 47 55 58
-7.999 -25.577 -47.993 42 52 54
-7.979 -25.579 -47.993 42 52 53
-7.959 -25.582 -47.993 43 51 53
-7.939 -25.585 -47.993 43 48 51
-7.919 -25.589 -47.993 41 46 52
-7.900 -25.593 -47.993 38 43 49
-7.880 -25.597 -47.993 30 35 41
-7.861 -25.603 -47.993 29 34 40
-7.841 -25.608 -47.993 26 34 37
-7.822 -25.614 -47.993 22 30 32
-7.803 -25.621 -47.993 21 29 31
-7.784 -25.628 -47.993 19 27 29
-7.766 -25.635 -47.993 19 26 32
-7.747 -25.643 -47.993 16 23 29
-7.729 -25.652 -47.993 11 18 24
-7.711 -25.660 -47.993 12 19 25
-7.693 -25.670 -47.993 11 16 20
-7.676 -25.679 -47.993 10 15 21
-7.658 -25.689 -47.993 8 12 21
-7.641 -25.700 -47.993 8 12 23
-7.624 -25.711 -47.993 7 14 20
-7.608 -25.722 -47.993 7 14 20
-7.592 -25.734 -47.993 8 15 21
-7.576 -25.746 -47.993 6 13 19
-7.560 -25.759 -47.993 3 11 14
-7.545 -25.772 -47.993 4 12 15
-7.530 -25.785 -47.993 2 10 13
-7.515 -25.799 -47.993 3 11 14
-7.500 -25.813 -47.993 2 10 13
-7.486 -25.827 -47.993 3 10 16
-7.473 -25.842 -47.993 2 9 17
-7.459 -25.857 -47.993 2 9 17
-7.447 -25.872 -47.993 2 9 17
-7.434 -25.888 -47.993 2 9 15
-7.422 -25.904 -47.993 3 10 16
-7.410 -25.920 -47.993 4 11 17
-7.399 -25.937 -47.993 4 9 15
-7.388 -25.953 -47.993 4 9 15
-7.377 -25.970 -47.993 4 9 15
-7.367 -25.988 -47.993 5 10 16
-7.357 -26.005 -47.993 5 10 16
-7.348 -26.023 -47.993 6 11 17
-7.339 -26.041 -47.993 7 12 18
-7.331 -26.060 -47.993 8 13 19
-7.323 -26.078 -47.993 7 14 22
-7.316 -26.097 -47.993 8 15 23
-7.309 -26.115 -47.993 12 19 27
-7.302 -26.134 -47.993 11 18 26
-7.296 -26.154 -47.993 13 20 28
-7.290 -26.173 -47.993 14 21 29
-7.285 -26.192 -47.993 14 21 29
-7.281 -26.212 -47.993 16 23 31
-7.277 -26.231 -47.993 18 25 31
-7.273 -26.251 -47.993 18 25 31
-7.270 -26.271 -47.993 19 26 32
-7.267 -26.291 -47.993 19 26 32
-7.265 -26.311 -47.993 19 26 34
-7.263 -26.331 -47.993 16 23 31
-7.262 -26.351 -47.993 13 20 28
-7.261 -26.371 -47.993 12 19 27
-7.261 -26.391 -47.993 11 18 24
-7.261 -26.411 -47.993 15 22 28
-7.262 -26.431 -47.993 12 23 27
-7.263 -26.451 -47.993 14 28 31
-7.265 -26.471 -47.993 23 32 37
-7.267 -26.491 -47.993 27 36 41
-7.270 -26.511 -47.993 32 41 46
-7.273 -26.531 -47.993 37 46 51
-7.277 -26.551 -47.993 40 47 53
-7.281 -26.570 -47.993 47 54 60
-7.285 -26.590 -47.993 47 54 60
-7.290 -26.609 -47.993 47 54 60
-7.296 -26.629 -47.993 45 53 56
-7.302 -26.648 -47.993 46 54 57
-7.309 -26.667 -47.993 45 53 56
-7.316 -26.685 -47.993 42 50 53
-7.323 -26.704 -47.993 43 51 54
-7.331 -26.723 -47.993 41 49 52
-7.339 -26.741 -47.993 36 44 47
-7.348 -26.759 -47.993 35 43 46
-7.357 -26.777 -47.993 30 37 45
-7.367 -26.794 -47.993 28 35 43
-7.377 -26.812 -47.993 28 35 43
-7.388 -26.829 -47.993 27 34 42
-7.399 -26.846 -47.993 27 34 42
-7.410 -26.862 -47.993 23 32 39
-7.422 -26.878 -47.993 21 32 38
-7.434 -26.894 -47.993 25 36 42
-7.447 -26.910 -47.993 25 36 42
-7.459 -26.925 -47.993 27 36 43
-7.473 -26.940 -47.993 34 43 50
-7.486 -26.955 -47.993 36 45 52
-7.500 -26.970 -47.993 39 50 54
-7.515 -26.984 -47.993 39 50 54
-7.530 -26.997 -47.993 44 53 58
-7.545 -27.011 -47.993 46 53 59
-7.560 -27.023 -47.993 47 54 62
-7.576 -27.036 -47.993 49 56 64
-7.592 -27.048 -47.993 49 56 64
-7.608 -27.060 -47.993 49 56 64
-7.624 -27.071 -47.993 51 58 66
-7.641 -27.082 -47.993 49 56 64
-7.658 -27.093 -47.993 48 55 63
-7.676 -27.103 -47.993 48 55 63
-7.693 -27.113 -47.993 52 59 67
-7.711 -27.122 -47.993 52 59 67
-7.729 -27.131 -47.993 51 58 66
-7.747 -27.139 -47.993 51 58 66
-7.766 -27.147 -47.993 50 57 65
-7.784 -27.154 -47.993 51 60 67
-7.803 -27.161 -47.993 51 62 68
-7.822 -27.168 -47.993 48 59 65
-7.841 -27.174 -47.993 52 61 66
-7.861 -27.179 -47.993 53 60 66
-7.880 -27.185 -47.993 54 61 67
-7.900 -27.189 -47.993 54 61 67
-7.919 -27.193 -47.993 56 60 69
-7.939 -27.197 -47.993 57 61 70
-7.959 -27.200 -47.993 57 61 70
-7.979 -27.203 -47.993 58 62 71
-7.999 -27.205 -47.993 58 65 73
-8.019 -27.207 -47.993 57 66 71
-8.039 -27.208 -47.993 56 65 70
-8.059 -27.209 -47.993 56 65 70
-8.079 -27.209 -47.993 57 64 70
-8.099 -27.209 -47.993 57 64 70
-8.119 -27.208 -47.993 57 64 70
-8.139 -27.207 -47.993 57 64 70
-8.159 -27.205 -47.993 57 64 70
-8.179 -27.203 -47.993 57 64 70
-8.199 -27.200 -47.993 58 65 71
-8.219 -27.197 -47.993 58 65 71
-8.239 -27.193 -47.993 56 65 70
-8.258 -27.189 -47.993 58 67 72
-8.278 -27.185 -47.993 56 65 70
-8.297 -27.179 -47.993 57 66 71
-8.316 -27.174 -47.993 61 66 72
-8.336 -27.168 -47.993 61 66 72
-8.355 -27.161 -47.993 62 67 73
-8.373 -27.154 -47.993 64 69 75
-8.392 -27.147 -47.993 65 68 73
-8.410 -27.139 -47.993 65 69 72
-8.429 -27.131 -47.993 65 69 72
-8.447 -27.122 -47.993 65 69 72
-8.465 -27.113 -47.993 68 68 76
-8.482 -27.103 -47.993 68 68 76
-8.499 -27.093 -47.993 69 69 77
-8.517 -27.082 -47.993 69 69 77
-8.533 -27.071 -47.993 67 70 75
-8.550 -27.060 -47.993 67 70 75
-8.566 -27.048 -47.993 69 72 79
-8.582 -27.036 -47.993 65 68 75
-8.598 -27.023 -47.993 67 71 80
-8.613 -27.011 -47.993 72 75 82
-8.628 -26.997 -47.993 71 72 76
-8.643 -26.984 -47.993 68 69 71
-8.657 -26.970 -47.993 61 64 69
-8.671 -26.955 -47.993 61 64 69
-8.685 -26.940 -47.993 62 65 70
-8.698 -26.925 -47.993 60 63 68
-8.711 -26.910 -47.993 61 66 70
-8.724 -26.894 -47.993 61 66 70
-8.736 -26.878 -47.993 59 64 68
-8.748 -26.862 -47.993 59 64 68
-8.759 -26.846 -47.993 61 64 73
-8.770 -26.829 -47.993 59 62 71
-8.781 -26.812 -47.993 59 62 71
-8.791 -26.794 -47.993 60 63 72
-8.800 -26.777 -47.993 57 61 70
-8.810 -26.759 -47.993 60 64 73
-8.818 -26.741 -47.993 57 61 70
-8.827 -26.723 -47.993 56 60 69
-8.835 -26.704 -47.993 54 58 67
-8.842 -26.685 -47.993 55 59 68
-8.849 -26.667 -47.993 55 59 68
-8.856 -26.648 -47.993 56 60 69
-8.862 -26.629 -47.993 55 59 68
-8.867 -26.609 -47.993 56 60 69
-8.872 -26.590 -47.993 56 60 69
-8.877 -26.570 -47.993 56 60 69
-8.881 -26.551 -47.993 54 61 69
-8.885 -26.531 -47.993 53 60 68
-8.888 -26.511 -47.993 55 62 70
-8.891 -26.491 -47.993 54 61 69
-8.893 -26.471 -47.993 52 59 67
-8.895 -26.451 -47.993 54 61 69
-8.896 -26.431 -47.993 53 60 68
-8.897 -26.411 -47.993 53 60 68
-8.897 -26.391 -47.993 52 59 67
-8.897 -26.371 -47.993 52 59 67
-8.896 -26.351 -47.993 53 60 68
-8.895 -26.331 -47.993 51 58 66
-8.893 -26.311 -47.993 53 60 68
-8.891 -26.291 -47.993 52 59 67
-8.888 -26.271 -47.993 51 58 66
-8.885 -26.251 -47.993 52 59 67
-8.881 -26.231 -47.993 53 60 68
-8.877 -26.212 -47.993 50 57 65
-8.872 -26.192 -47.993 52 59 67
-8.867 -26.173 -47.993 52 59 67
-8.862 -26.154 -47.993 50 57 65
-8.856 -26.134 -47.993 50 57 65
-8.849 -26.115 -47.993 52 59 67
-8.842 -26.097 -47.993 52 59 67
-8.835 -26.078 -47.993 53 60 66
-8.827 -26.060 -47.993 52 59 65
-8.818 -26.041 -47.993 50 57 63
-8.810 -26.023 -47.993 51 58 64
-8.800 -26.005 -47.993 52 59 67
-8.791 -25.988 -47.993 50 57 65
-8.781 -25.970 -47.993 51 58 66
-8.770 -25.953 -47.993 52 59 67
-8.759 -25.937 -47.993 51 57 69
-8.748 -25.920 -47.993 55 59 70
